ply
            format ascii 1.0
            element vertex 9420
            property float x
            property float y
            property float z
            property uchar blue
            property uchar green
            property uchar red
            end_header
-620.706749 -136.108112 962.673950 68 44 36
-620.706749 -136.108112 962.673950 68 44 36
-619.845915 -133.095360 963.461018 99 110 118
-626.558352 -76.209766 968.151569 55 35 28
-627.948618 -84.971368 970.812416 166 131 115
-627.948618 -84.971368 970.812416 166 131 115
-624.928474 -68.985236 966.983604 148 105 90
-625.540829 -64.924347 967.584419 141 97 84
-757.303143 -15.914741 1107.223701 94 65 61
-621.247482 -150.593686 968.206692 87 65 59
-621.247482 -150.593686 968.206692 87 65 59
-541.419268 175.413430 866.390228 87 85 102
-627.237320 -33.062845 969.748878 52 30 24
-627.375126 -43.668163 971.315002 44 26 21
-627.652788 -54.480398 972.927380 34 19 16
-627.652788 -54.480398 972.927380 34 19 16
-616.941309 -130.266726 965.395451 50 51 63
-628.249454 -84.003913 975.621986 56 37 29
-619.986296 -180.405116 971.909618 75 49 55
-619.947624 -139.457822 970.160675 46 45 54
-619.947624 -139.457822 970.160675 46 45 54
-628.538322 -93.598926 977.293873 55 35 29
-619.517374 -141.913903 969.937134 114 133 138
-617.606306 -166.780448 970.603466 43 30 37
-668.427753 -409.621429 1038.493061 89 62 48
-616.048908 -168.404865 970.872879 109 84 100
-616.048908 -168.404865 970.872879 109 84 100
-620.389557 -103.958428 972.706509 44 38 43
-628.368568 -93.738800 981.622028 147 113 103
-626.703787 -49.730578 978.024387 202 155 138
-626.984167 -54.208696 978.640079 198 149 139
-628.769159 -88.005823 982.259560 165 121 110
-620.342350 -135.069764 975.551796 177 132 116
-626.881361 -79.027116 981.113434 179 134 118
-625.934982 -66.566324 980.528831 115 77 71
-617.222881 -159.870815 975.628948 113 131 136
-617.222881 -159.870815 975.628948 113 131 136
362.635517 120.229101 -107.194614 33 12 11
-618.480349 -171.074903 979.154968 41 25 33
-625.791216 -76.963454 983.817482 156 110 94
-626.109266 -62.996322 984.317207 136 92 82
-619.658566 -126.383615 981.034374 54 59 61
-618.406534 -156.469715 982.423782 162 131 116
-618.406534 -156.469715 982.423782 162 131 116
-618.498182 -108.204198 980.160332 95 86 88
-623.699236 -61.065716 983.866787 162 117 104
-619.417334 -138.806057 983.037853 78 57 59
-618.298483 -159.972513 982.903385 95 77 79
-618.466711 -139.856207 983.157635 73 53 50
-624.979019 -59.271824 986.410427 205 161 144
-615.451050 -173.683619 982.781315 133 100 113
-617.508364 -112.349033 982.831383 32 27 40
-619.267130 -131.312108 985.749340 93 103 108
-627.358532 -94.061697 993.008709 154 117 103
-627.358532 -94.061697 993.008709 154 117 103
-534.500456 176.826155 877.706432 112 98 111
-626.382875 -40.265214 990.841961 207 159 139
-626.386070 -46.154597 991.198635 208 157 140
-616.242743 -152.513039 985.608101 75 53 49
-627.441406 -51.130426 992.937851 205 156 134
-617.117929 -167.535496 987.448788 31 26 39
-665.597582 -425.721073 1054.168797 253 255 255
-628.192711 -94.229919 997.706223 150 116 98
-618.111706 -132.102334 988.528919 29 29 39
-533.290529 180.864835 879.445744 104 104 95
-533.052111 37.890214 887.292385 68 79 85
-624.529791 -63.979387 995.480824 121 81 76
-618.132401 -128.701663 991.650200 103 120 129
-620.161247 -99.634022 993.455219 44 37 53
-625.768757 -50.561619 997.890949 50 26 22
-629.263735 -252.999806 1012.749195 146 98 76
-626.810074 -87.994218 1001.762009 171 131 119
-624.601936 -73.401856 998.726845 194 145 129
-626.762581 -84.524518 1001.736927 178 134 118
-627.189684 -76.943135 1002.370739 181 136 115
-617.864227 -140.717602 995.380974 35 33 43
-618.069601 -144.801688 996.950626 95 107 113
-620.163727 -163.450468 1000.308990 46 41 42
-622.658300 -305.273986 1010.744762 48 30 39
-618.745899 -124.452567 997.895718 168 123 112
-619.280338 -127.936995 998.896599 147 116 103
-613.908339 -166.624403 995.023537 81 89 90
-1532.235432 -581.119871 2039.170265 90 66 66
-535.878325 52.623707 896.562672 72 83 85
-618.996191 -156.946337 1001.434326 113 123 128
-625.796175 -79.651493 1005.805302 30 18 16
-626.214218 -89.065623 1007.143974 29 16 15
-623.834562 -54.102749 1002.782631 204 160 139
-617.601490 -158.099246 1001.118279 124 97 89
-1531.393719 -514.245129 2041.397095 195 148 134
-617.182446 -131.803870 999.819946 55 52 57
-617.584467 -126.712990 1001.556110 86 59 49
-625.594139 -45.983568 1006.870747 56 31 27
-532.986593 36.997399 898.409176 33 40 47
-628.321409 -273.868275 1021.911526 193 148 134
-614.373064 -168.488121 1002.001190 49 44 48
-624.743366 -70.420778 1008.873844 32 19 19
-534.638214 40.142128 903.101921 64 75 81
-619.610167 -159.410119 1009.530830 109 105 107
-618.691730 -122.659504 1007.538891 44 44 54
-531.759644 35.099775 901.788998 76 87 95
-622.461176 -303.774190 1022.183323 47 30 34
-1529.829788 -534.353876 2057.594872 151 102 80
-616.415787 -133.221054 1006.705475 96 104 111
-1252.633095 -421.153975 1744.459915 133 85 67
-617.207432 -141.429722 1008.714104 59 53 51
-616.934013 -161.694050 1011.819839 22 19 21
-616.934013 -161.694050 1011.819839 22 19 21
-613.266563 -110.146153 1005.167103 29 29 43
-617.547178 -103.905261 1009.932423 98 82 85
-795.651293 -15.991801 1208.347321 123 99 88
-625.636387 -71.664041 1018.251324 162 122 109
-625.636387 -71.664041 1018.251324 162 122 109
-1525.687981 -505.524015 2063.334846 191 145 128
-613.639784 -168.477619 1010.759258 89 91 100
-629.247189 -271.254516 1035.469913 163 120 104
-629.247189 -271.254516 1035.469913 163 120 104
-615.847683 -142.180324 1013.662624 69 43 41
-615.847683 -142.180324 1013.662624 69 43 41
-790.418386 -10.746065 1207.535076 71 50 51
-613.726950 -164.003432 1013.677311 32 32 36
-791.951132 -17.362711 1210.033703 53 39 44
-615.930176 -156.585538 1016.139221 119 119 123
-621.912432 -53.573620 1018.204594 101 77 89
-613.902378 -169.401157 1015.616608 42 39 44
-612.196589 -166.414118 1014.536953 92 101 105
-617.906809 -152.888370 1020.492840 139 115 113
-614.914274 -146.437764 1017.739964 164 130 111
-1511.494446 -486.805010 2062.567329 131 85 70
-1513.992596 -508.130693 2067.265129 133 90 72
-654.114389 2.471276 1056.606483 148 118 97
-617.610025 -130.322671 1022.077179 73 59 58
-1503.129673 -444.876766 2056.737518 188 143 130
-626.075459 -242.519522 1038.848400 173 128 114
-1506.046391 -461.160421 2061.407089 188 143 130
-617.806482 -125.760365 1023.544502 169 129 117
-616.848326 -122.445405 1024.204731 75 57 66
-1513.513756 -498.445988 2072.757339 188 143 130
-615.566730 -164.496970 1028.321934 50 34 45
-610.014868 1.973598 1013.677597 93 68 59
-621.101093 -299.871087 1042.640400 41 30 37
-616.827202 -136.344087 1029.764748 106 114 120
-625.536919 -275.458241 1047.980309 65 44 55
-610.003281 -12.403329 1016.089725 40 36 55
-613.664341 -167.237294 1028.931999 138 102 114
-607.711267 8.661617 1012.897491 89 62 57
-607.711267 8.661617 1012.897491 89 62 57
-616.714334 -114.638495 1031.939888 101 122 128
-615.650225 -120.983303 1031.062031 40 42 50
-613.005543 -155.943906 1031.168556 85 88 89
-613.556480 -164.470923 1032.263947 76 43 60
-619.527769 -171.323538 1039.752960 82 60 72
-614.291430 -126.104915 1031.273460 125 126 131
-614.291430 -126.104915 1031.273460 125 126 131
-607.245731 15.469201 1016.476536 167 131 117
-569.297314 -8.460990 973.594761 133 107 93
-614.524221 -161.207581 1035.132790 47 31 39
-606.884861 4.475036 1017.789841 148 118 97
-606.192064 -0.407019 1018.517494 161 127 112
-606.192064 -0.407019 1018.517494 161 127 112
-617.457771 -85.948384 1036.493111 37 39 44
-617.457771 -85.948384 1036.493111 37 39 44
-614.333200 -132.499743 1037.077999 41 40 53
-616.892147 -145.685184 1041.327095 109 76 71
-614.948273 -157.226467 1042.499256 48 36 30
-567.139244 16.262966 976.970005 110 78 69
-566.719723 4.460937 978.359127 93 68 59
-567.816305 9.804579 980.381775 89 62 57
-613.265038 -127.239406 1043.216610 89 58 58
-616.798067 -175.689781 1051.393604 162 122 110
-612.271595 -136.060095 1044.783211 204 160 144
-611.114120 -84.701681 1041.103077 31 34 42
-612.887239 -151.526773 1048.403645 114 75 70
-600.650311 -102.747691 1031.366062 107 97 103
-712.029886 -7.767503 1160.952187 129 103 93
-608.611012 -127.051544 1044.538879 204 165 144
-612.203789 -131.736290 1050.572968 45 38 40
-612.203789 -131.736290 1050.572968 45 38 40
-614.985943 -145.467079 1055.708790 58 31 27
-611.499548 -79.706264 1049.242020 92 101 108
-611.065483 -83.955353 1049.778652 46 51 57
-613.795471 -162.311959 1057.730198 114 81 103
-613.522816 -17.660886 1049.409389 137 112 120
-616.208076 -141.896093 1059.591293 126 96 109
-612.193918 -134.334481 1056.034946 122 137 142
-615.189600 -152.634656 1060.879517 186 146 129
-600.276566 -101.663506 1040.867043 107 99 107
-620.481253 -294.327831 1080.442333 43 32 36
-620.751381 -248.254251 1080.495548 86 77 83
-620.653105 -289.999723 1083.833790 146 108 96
-613.268471 -92.346829 1071.281528 36 28 31
-614.106083 -61.403900 1072.442627 117 92 88
-614.913988 -76.188630 1075.680733 57 43 43
-614.913988 -76.188630 1075.680733 57 43 43
-619.089508 -236.416769 1090.778255 76 73 83
-525.719261 4.800655 962.488079 155 125 112
-525.586414 -2.693802 963.237762 121 97 92
-613.530159 -69.891334 1075.850105 103 117 122
-616.294384 -87.537044 1082.210541 57 45 50
-531.400490 22.738177 973.145771 127 109 133
-618.167400 -263.539410 1100.435257 71 67 81
-619.929838 -286.925173 1111.444759 135 97 87
-525.959396 -0.578465 978.019238 123 99 88
-619.508791 -229.294086 1108.673573 117 75 65
-620.087194 -262.664080 1112.786770 69 69 84
-619.039392 -268.449593 1112.538624 111 68 55
-619.039392 -268.449593 1112.538624 111 68 55
-619.253492 -245.642352 1112.121964 93 63 57
-1630.162621 363.346004 2352.979279 59 38 36
-618.598747 -256.960392 1114.531898 95 68 63
-618.616819 -254.495096 1115.959167 100 70 65
-524.125910 23.199865 981.764412 169 133 120
-614.687872 -102.742219 1108.250141 139 96 78
-551.592922 13.876377 1023.512268 106 75 60
-551.592922 13.876377 1023.512268 106 75 60
-613.076305 -92.800570 1111.544991 105 82 90
-614.297915 -96.302325 1119.627380 109 86 90
-528.129435 18.390535 1007.205868 151 118 105
-613.960409 -110.546803 1129.644775 104 77 81
-443.204975 228.232121 893.044853 82 66 63
-616.903925 -79.478973 1142.145920 71 44 37
-617.286825 -273.871994 1156.094265 153 113 100
-529.668808 21.823466 1026.450539 144 116 106
-1547.844887 -385.561943 2396.010971 55 29 21
-1669.834900 -304.383540 2579.463768 82 49 37
-619.165421 -75.294548 1158.408833 56 43 39
-1722.576332 -438.240719 2646.561623 169 134 116
-619.703436 -255.881548 1173.722267 91 67 66
-1718.931580 -510.582161 2652.379608 160 123 104
-621.097898 -76.059949 1164.809132 32 20 17
-623.692131 -223.496675 1178.168201 191 145 128
-613.532352 -118.491995 1159.549046 119 77 67
-613.004494 -105.500615 1158.861256 128 99 97
-602.861691 223.382974 1128.825569 102 68 61
-611.214828 -88.733792 1159.356976 165 133 124
-602.399111 206.984019 1131.519413 105 66 56
-334.244037 -145.682383 796.222782 173 128 114
-603.440666 210.369062 1135.619450 148 114 99
-605.138826 141.363382 1143.439770 113 76 69
-605.138826 141.363382 1143.439770 113 76 69
-611.321163 -95.474660 1170.374393 108 67 57
-611.321163 -95.474660 1170.374393 108 67 57
-605.221176 108.684826 1149.980831 117 76 66
-606.084299 111.749971 1152.520084 163 125 107
-604.238081 113.021433 1157.754707 166 127 113
-611.597109 -90.503228 1183.082104 157 108 94
-603.242302 230.051947 1152.561188 153 119 101
-609.193182 -49.389672 1198.065758 126 90 81
-498.839569 229.873013 1027.155113 20 17 17
-610.754776 -93.594939 1205.822468 117 84 88
-1727.786255 -573.241901 2797.913933 86 74 84
-613.354111 -243.933249 1220.303440 88 73 82
-615.024137 -266.832423 1227.239895 141 104 94
-612.633085 -215.365863 1220.839310 85 75 88
-612.600088 -208.615756 1223.634529 116 79 72
-491.284132 229.737377 1028.374577 119 101 116
-612.056112 -215.132070 1234.146500 78 70 87
-490.963793 237.066245 1035.305786 25 22 22
-602.391005 203.502464 1198.112392 156 121 104
-607.068777 56.958687 1217.160225 140 117 113
-675.347185 -330.366778 1342.576504 77 49 40
-608.729982 -97.307551 1234.002399 120 88 95
-608.729982 -97.307551 1234.002399 120 88 95
-611.624956 -212.981486 1248.410892 77 70 84
-601.067495 102.985454 1212.467670 107 73 68
-604.120636 63.341951 1220.946884 57 50 64
-604.120636 63.341951 1220.946884 57 50 64
-613.854218 -252.220798 1258.029270 142 104 90
-611.626959 -239.798093 1258.871555 67 61 75
-613.675737 -245.407557 1265.232944 159 121 106
-603.371668 78.990030 1231.434345 173 131 114
-479.908466 244.451070 1041.171169 21 17 17
-610.729265 -217.248821 1265.063095 66 57 72
-611.403656 -246.385884 1270.121861 117 77 63
-600.627422 222.498322 1227.270985 106 69 64
-601.594782 172.583818 1234.238052 109 74 68
-596.904659 234.963775 1231.233120 59 45 65
-594.704199 234.461284 1228.894806 59 45 65
-472.574615 252.675200 1050.371838 20 15 15
-605.174541 -132.249093 1289.448452 103 68 65
-588.206530 138.258111 1261.338139 172 130 110
-604.090691 -96.887553 1304.708195 124 79 69
-609.599113 -256.162214 1325.958920 48 37 40
-600.934505 73.709667 1291.029167 115 91 92
-605.210447 -87.153077 1310.667706 152 120 112
-612.597132 36.869255 1314.458561 35 22 16
-612.597132 36.869255 1314.458561 35 22 16
-599.253607 116.408408 1288.190174 121 77 66
-603.684998 -68.248242 1308.871269 129 88 76
-606.790495 -97.139984 1316.135502 127 85 74
-612.328959 -10.528950 1321.057034 28 16 13
-612.328959 -10.528950 1321.057034 28 16 13
-603.389454 -48.250869 1309.833813 69 39 28
-610.233212 -20.695248 1320.722580 180 133 116
-605.182314 -93.190390 1318.215752 187 144 127
-599.242353 110.049617 1296.583652 125 82 67
-602.657080 -149.285829 1321.338654 162 115 92
-604.212332 -95.295590 1323.120880 135 90 77
-611.791658 14.526908 1327.445030 161 124 105
-600.058031 68.336457 1310.505104 133 94 81
-596.472216 245.137334 1294.661808 59 44 67
-603.969622 -79.494798 1331.300831 125 93 87
-612.845373 -200.576568 1356.435108 82 49 37
-593.389654 234.939337 1303.140545 109 74 65
-593.994713 201.928568 1308.107853 115 73 66
-595.183992 255.594492 1306.919003 148 112 94
-544.845104 287.668824 1224.318218 75 49 52
-594.376850 168.992901 1313.410091 118 79 71
-594.376850 168.992901 1313.410091 118 79 71
-306.370234 -44.810915 870.120716 108 67 57
-595.837450 152.873492 1318.869400 118 77 66
-542.888737 289.340758 1224.691296 152 119 104
-596.434212 136.223722 1322.186375 122 80 68
-596.434212 136.223722 1322.186375 122 80 68
-603.000927 -122.470045 1357.457829 97 70 80
-540.279579 290.317440 1225.676060 71 44 41
-594.012928 138.038814 1333.995438 115 78 71
-602.938843 -166.193211 1375.637245 166 126 114
-1296.284676 592.795658 2459.882545 137 112 97
-595.926762 83.382255 1352.903748 90 81 92
-603.312635 -219.316912 1399.275494 86 74 84
-777.162600 -372.773933 1704.072189 106 61 53
-592.220879 163.932455 1367.510891 162 125 110
-597.136497 89.394706 1386.901379 99 81 82
-590.067863 293.633509 1365.195084 113 100 116
-748.236656 -437.361193 1699.947166 254 249 250
-589.666271 222.495747 1381.904602 44 31 23
-589.666271 222.495747 1381.904602 44 31 23
-590.127468 195.422065 1385.876656 50 32 24
-590.127468 195.422065 1385.876656 50 32 24
-591.088915 146.982324 1393.435764 49 29 25
-591.004944 131.489146 1395.335484 49 30 26
-584.165382 259.342504 1378.880501 127 96 83
-583.644295 250.533175 1379.307079 141 109 94
-587.244987 194.115174 1391.541862 130 99 86
-585.996294 193.676245 1390.000534 130 99 86
-589.672995 97.258508 1409.065628 154 122 109
-590.576982 173.649371 1406.069756 151 117 103
-590.868759 88.238382 1413.870621 156 119 106
-585.151386 123.178649 1401.671314 168 126 109
-578.393173 122.113359 1393.157482 168 126 109
-650.435066 -301.354909 1589.558601 75 41 28
-645.965433 -327.779269 1591.594028 65 39 34
-591.027212 129.048204 1455.581093 122 78 65
-598.239899 -188.084555 1501.768112 96 71 66
-589.112425 258.561492 1449.954224 106 73 66
-597.684956 -141.692531 1509.575939 165 128 114
-640.978813 -324.877477 1609.502602 51 31 26
-588.682842 79.888219 1485.639572 85 62 75
-593.690920 75.554371 1500.639248 176 133 118
-596.806049 11.030608 1513.150883 170 128 114
-594.298935 -20.299621 1514.777756 98 68 59
-531.778955 316.774821 1373.554325 140 114 94
-594.186544 -38.223007 1519.918251 134 102 95
-593.512344 -63.910842 1524.524975 165 124 107
-591.839457 265.684438 1495.135498 79 50 43
-587.820816 150.837958 1499.445438 125 80 66
-592.450476 212.373543 1503.236580 74 45 38
-598.619032 73.734593 1529.909801 96 57 44
-598.932791 19.982365 1536.162281 73 40 34
-599.809599 -6.859487 1540.353584 77 43 32
-587.718201 154.718709 1504.802132 172 130 111
-593.879938 -54.924411 1534.963417 111 81 85
-593.879938 -54.924411 1534.963417 111 81 85
-589.732313 110.144329 1513.734531 116 86 82
-592.159081 207.179689 1509.912300 159 123 106
-592.973852 -14.350179 1530.904293 71 41 33
-527.214479 313.950348 1380.382347 58 50 53
-554.916668 -29.286686 1481.439972 119 88 77
-598.894739 14.809227 1542.695904 172 129 112
-599.212742 6.184205 1544.291496 116 83 72
-599.212742 6.184205 1544.291496 116 83 72
-587.071848 152.432644 1511.080170 115 74 64
-592.812872 203.279114 1517.720222 82 53 47
-601.781225 -98.575234 1561.591625 170 131 118
-599.445343 -128.545713 1563.402271 120 89 77
-600.219488 -12.932304 1554.209995 56 35 27
-590.627527 241.409969 1516.352177 169 130 113
-601.079655 -101.446545 1568.395710 80 48 39
-596.633291 63.569880 1546.505070 167 128 111
-603.059673 -189.516485 1582.850456 64 35 32
-599.512386 -194.279265 1589.703941 64 44 58
-645.017242 -319.126534 1687.792206 250 245 242
-590.260220 89.116567 1549.243164 75 57 72
-649.007607 -380.729842 1707.533646 52 38 45
-591.588306 -34.779707 1567.052269 110 71 58
-592.952108 -87.353492 1576.840210 101 79 87
-592.952108 -87.353492 1576.840210 101 79 87
-640.780640 -405.511570 1699.711800 251 246 247
-512.389183 319.978428 1390.829563 137 112 97
-643.998480 -414.879656 1721.323776 176 133 106
-592.794466 -195.213735 1604.897690 136 99 86
-592.807198 -186.634505 1605.474663 81 64 74
-592.807198 -186.634505 1605.474663 81 64 74
-614.303207 -274.008751 1655.478859 138 106 81
-713.630104 -490.443659 1880.438614 219 171 130
-613.243866 -276.621366 1661.137581 123 79 60
-598.891068 -261.820698 1659.633446 184 136 123
-589.230680 -163.435423 1639.048958 58 43 43
-572.302437 96.002734 1584.975243 90 63 57
-596.734810 -442.676973 1698.736000 219 171 130
-583.084822 -441.310501 1695.696640 211 165 123
-599.458408 -472.559690 1732.963943 253 248 249
-555.060244 -227.591491 1649.208641 175 136 122
-532.054901 -20.716430 1594.982338 141 113 108
-559.210730 -417.682552 1693.735313 130 85 52
-588.065815 -498.400354 1777.518845 252 247 248
-532.737303 68.284953 1607.332230 127 94 85
-543.957853 -231.908822 1667.088699 109 64 50
-543.328619 -222.144604 1664.801407 109 64 51
-543.328619 -222.144604 1664.801407 109 64 51
-544.634008 -250.852680 1670.634460 106 61 49
-531.895638 109.201241 1613.580322 151 116 97
-541.045189 -237.478375 1670.891953 181 138 121
-529.257774 103.517807 1617.742538 62 35 27
-533.307648 -46.917856 1642.638969 49 23 19
-531.491709 14.376241 1632.399940 44 23 20
-537.644196 -223.588848 1671.109772 106 63 48
-530.815697 -152.594388 1647.801399 53 26 19
-525.868940 107.874978 1618.443680 145 108 89
-535.281229 -95.292521 1658.451271 163 126 109
-530.727911 -71.570516 1648.721504 163 128 112
-535.767698 -247.993088 1678.287506 171 130 112
-473.603535 -62.994409 1553.507519 143 117 121
-473.603535 -62.994409 1553.507519 143 117 121
-510.343456 -112.407804 1626.307487 143 117 121
-510.343456 -112.407804 1626.307487 143 117 121
-529.851532 -158.459139 1667.011261 143 117 121
-529.851532 -158.459139 1667.011261 143 117 121
-521.871281 105.909097 1624.747658 123 98 100
-524.500370 -23.961776 1645.913124 147 118 114
-525.238895 -74.349833 1654.610825 149 118 115
-531.116772 -116.799521 1669.238281 149 118 115
-520.354319 105.295360 1625.331116 140 110 108
-505.876923 80.389619 1601.995087 149 122 117
-527.460575 -255.185533 1687.829590 101 55 44
-527.120876 -245.719671 1686.217499 103 59 44
-520.234680 11.136954 1643.751717 46 21 18
-522.310257 -69.889772 1657.143021 60 30 23
-524.583006 -162.925351 1672.384453 96 51 42
-517.645502 5.777135 1647.371674 127 96 82
-510.190678 79.783201 1625.177765 154 117 98
-519.522476 -75.472850 1660.851860 156 124 101
-518.818331 -56.485927 1657.466316 159 123 105
-513.780451 124.278402 1627.083206 154 117 98
-514.290285 114.117312 1629.402542 154 118 97
-522.120571 -221.856141 1683.589745 191 148 132
-515.059996 47.478437 1639.690971 191 147 129
-513.022518 94.027972 1632.670593 117 84 75
-519.554090 -227.779484 1686.828613 100 56 42
-511.489582 108.317661 1633.046341 63 34 26
-506.571722 58.641601 1636.536026 156 121 107
-508.690882 112.912381 1634.812927 160 124 107
-521.716976 -351.046371 1732.912445 184 138 122
-537.644005 -474.024010 1783.032036 251 246 244
-513.750124 -439.256907 1732.614708 210 160 115
-500.078487 -376.486492 1716.415787 67 59 64
-507.971859 -433.814001 1744.243813 206 160 112
-514.494753 -249.878693 1753.820610 188 142 125
-509.421873 -404.265499 1761.480331 68 38 22
-499.387836 -106.789339 1712.388992 94 64 61
-499.387836 -106.789339 1712.388992 94 64 61
-502.800608 -345.498395 1762.990952 167 122 110
-499.132490 -153.320324 1733.572578 69 53 56
-499.506998 -343.861413 1756.929016 167 122 110
-503.000736 -341.569614 1778.969765 74 38 45
-481.323051 -316.631269 1783.018875 255 239 233
-487.196255 -252.318454 1810.967064 143 107 91
-442.011738 -225.547361 1716.521454 53 34 31
-447.996473 -172.882879 1730.599213 174 128 110
-442.828751 25.954139 1693.882942 67 55 70
-553.987932 -135.360909 2007.052040 164 124 106
-469.538641 -256.595707 1800.680161 138 92 83
-451.498413 -126.192749 1738.627243 179 134 117
-549.557781 68.384415 1976.382828 159 123 105
-547.784662 86.877668 1970.657158 157 123 107
-390.067887 -34.597877 1598.935890 179 134 117
-390.067887 -34.597877 1598.935890 179 134 117
-448.035383 -30.305359 1725.489235 189 138 119
-438.876009 -102.913272 1721.257782 105 70 57
-380.197716 -41.995776 1590.660381 73 45 38
-435.202408 -83.334643 1722.035599 141 118 114
-688.953400 317.440319 2372.908211 116 87 84
-429.442167 -98.886073 1731.002235 183 146 131
-427.845573 -84.993255 1727.509308 176 137 124
-423.394966 42.721814 1699.574852 125 98 101
-430.961275 47.205985 1720.215225 164 124 111
-430.961275 47.205985 1720.215225 164 124 111
-423.973608 -118.940175 1734.503365 74 45 39
-420.490980 36.920121 1709.695244 90 62 55
-486.631441 -341.961026 1945.304871 95 58 52
-416.778326 -111.650276 1732.310104 164 124 106
-417.070055 -127.451956 1735.660744 185 141 122
-417.070055 -127.451956 1735.660744 185 141 122
-413.317108 -142.532694 1734.149551 115 87 78
-413.317108 -142.532694 1734.149551 115 87 78
-409.728861 94.360530 1696.644974 175 130 118
-409.728861 94.360530 1696.644974 175 130 118
-410.653114 -136.061621 1736.829567 74 44 33
-408.509016 -91.780573 1726.442528 102 63 47
-410.504770 -105.297077 1734.304237 103 64 47
-409.825850 52.211303 1716.614342 75 52 40
-692.297173 315.989041 2482.277679 60 47 61
-402.838135 -150.295496 1731.512642 81 67 81
-402.838135 -150.295496 1731.512642 81 67 81
-381.014276 262.508607 1660.935974 129 94 79
-436.422491 -385.866904 2003.213882 255 236 229
-356.338000 230.632114 1673.929596 129 98 84
-356.277823 238.292193 1672.618484 132 98 88
-339.861941 65.038913 1696.397972 191 142 121
-334.884000 251.953244 1669.304085 88 67 58
-334.440184 244.092536 1669.458580 99 74 59
-412.819338 -392.922854 2021.086502 110 67 59
-321.918344 211.285734 1666.835976 60 47 61
-321.918344 211.285734 1666.835976 60 47 61
-404.995298 -409.208775 2039.676857 254 236 231
-389.474463 -394.683552 2020.903778 100 57 55
-292.551804 137.689400 1675.097275 130 84 73
-287.399125 -83.253211 1708.989716 73 55 69
-282.521391 84.893769 1687.939835 82 55 67
-296.262121 -273.456883 1800.614738 143 94 73
-278.747416 172.869170 1669.258881 135 89 78
-280.363369 72.191298 1693.278885 167 130 113
-280.215311 86.849380 1690.871048 158 121 107
-276.785207 104.002488 1681.473541 153 110 94
-277.164650 33.497500 1696.488571 107 69 61
-277.164650 33.497500 1696.488571 107 69 61
-277.167106 84.911215 1691.683960 93 59 51
-277.167106 84.911215 1691.683960 93 59 51
-277.111149 31.175932 1703.055954 86 58 45
-273.596072 186.265230 1665.601730 120 75 64
71.074301 86.535752 438.255835 15 24 36
-260.949683 -32.071459 1690.731621 200 149 129
-263.924551 182.142389 1665.388298 164 121 105
-263.653660 147.679925 1671.727562 134 91 78
-263.257098 -148.603368 1723.134232 75 57 69
-254.829741 142.407727 1671.961975 180 132 114
-252.097607 76.893407 1683.961678 111 97 97
-251.635599 81.390089 1683.877182 120 101 100
-250.243330 152.077818 1669.893074 84 50 47
-250.668263 37.003943 1695.355988 72 52 61
-250.668263 37.003943 1695.355988 72 52 61
-249.529958 53.509200 1690.856743 66 44 50
-247.130132 181.205189 1665.096855 164 124 107
-243.043733 93.107462 1677.633476 29 21 26
-240.756726 113.738453 1675.906372 106 61 52
-239.920282 182.182169 1663.585091 97 59 53
-301.570582 -433.204699 2057.787132 255 237 232
-230.364895 142.487919 1670.765114 150 110 91
-231.169462 37.263331 1694.728088 147 110 91
-227.021646 -8.475056 1693.782997 183 137 119
-241.087413 -270.496988 1807.694817 129 87 81
-223.793030 -156.338608 1719.874763 75 59 69
-223.274398 -30.665910 1697.328186 131 81 71
-222.096825 -5.857760 1693.488121 113 65 55
-219.658065 53.431129 1682.065773 121 87 77
-219.735813 161.466849 1664.712524 112 78 65
-219.571877 152.254355 1666.508865 159 119 98
-216.654658 -8.960122 1693.207169 128 77 73
-216.654658 -8.960122 1693.207169 128 77 73
-214.049315 149.213338 1663.306808 85 50 47
-214.136887 154.772139 1663.393211 50 26 29
-212.097263 -40.009379 1696.960449 129 84 74
-210.858941 -33.788139 1696.896744 123 77 64
-210.117507 151.141357 1659.341621 102 71 61
-210.036826 158.553207 1658.303833 88 66 56
-207.992411 95.675653 1669.041252 74 45 48
-207.655787 155.955338 1660.820580 37 21 17
-206.243944 -10.902742 1693.010902 112 64 56
-200.534773 -176.938784 1714.489746 175 126 108
-200.375104 14.304493 1688.250542 160 117 102
-198.561502 29.973659 1685.999107 119 71 67
-198.846078 70.117426 1679.868317 164 122 100
-195.388865 32.470205 1684.395981 148 108 91
-191.024649 -137.161636 1714.605141 194 144 123
-192.326927 91.346103 1674.999046 154 112 95
-188.617599 33.543760 1684.372139 175 132 112
-187.831473 167.012382 1661.131287 64 30 31
-184.883118 -79.060900 1702.414131 127 74 66
-184.580755 -17.499736 1692.221451 115 67 62
-243.700123 -428.832340 2063.111877 113 68 62
-183.286285 130.100226 1668.278503 95 72 61
-183.531713 173.612535 1664.157104 126 91 72
-175.988460 90.653944 1674.062538 166 124 104
-170.918834 -86.345881 1702.273941 163 117 104
-176.098418 -230.158472 1764.319420 40 33 38
-173.224151 174.238539 1661.066818 106 78 64
-169.025064 157.562315 1661.053085 42 26 25
-166.345251 -17.813002 1689.317131 167 121 107
-159.319055 -199.669695 1709.439850 137 96 78
-162.466419 -87.213469 1702.259445 61 38 34
-163.895130 7.464819 1687.208939 144 102 88
-163.171709 144.444335 1664.642906 46 23 20
-159.057415 40.449002 1680.948448 57 33 31
-158.391869 25.372839 1683.020401 57 32 31
-158.607829 50.369328 1678.760910 62 36 31
-158.607829 50.369328 1678.760910 62 36 31
-157.883453 79.301977 1672.501945 55 33 31
-156.556129 -38.288933 1693.894768 148 108 84
-154.651773 -74.802941 1699.318123 109 65 55
-200.569534 -399.812365 2006.982613 82 45 42
-152.836800 -91.254109 1702.098274 127 77 68
-152.399325 16.057292 1686.277580 160 117 94
-151.644635 15.917504 1684.024620 160 117 94
-153.230059 169.334769 1660.002136 31 19 16
-151.598227 106.072044 1670.246506 132 93 71
-148.420429 -17.802060 1690.340996 151 113 96
22.772886 148.069751 786.663961 249 207 175
-146.339035 -54.969275 1695.126534 106 61 58
-146.049178 -64.577365 1698.859978 191 143 121
-145.422375 -47.870478 1694.347382 87 58 55
-145.904303 -23.546666 1691.859818 109 66 64
-147.468567 119.041049 1667.605019 43 27 26
-144.748962 -41.442475 1693.678665 96 53 49
-142.873394 -56.461138 1695.621681 163 120 103
-146.255386 192.842090 1656.040955 121 89 71
-140.809643 -29.995984 1691.379738 79 45 43
-140.809643 -29.995984 1691.379738 79 45 43
-140.450990 -25.742134 1691.376686 141 105 87
-140.450990 -25.742134 1691.376686 141 105 87
25.903076 151.071012 786.272240 19 12 10
-139.665163 117.778873 1665.841866 56 30 31
-140.671563 236.201715 1647.873688 132 96 75
-136.920202 62.609005 1674.963570 147 111 93
-136.636376 26.658237 1682.877922 85 50 46
-135.945976 -4.840450 1687.496185 84 50 51
-139.154506 188.946891 1656.740379 47 30 25
-134.320354 -68.694299 1697.409821 121 73 59
-138.787758 202.256107 1656.035805 151 108 89
-127.479053 -178.680527 1704.493332 176 127 111
-135.160196 166.079915 1659.820557 111 68 59
-131.388807 -39.011869 1693.782234 91 55 52
-134.700716 176.846814 1657.845306 66 33 29
-136.131859 244.857264 1648.995399 145 107 94
-133.968866 170.760894 1657.161140 153 113 92
-133.691275 200.526190 1654.387283 55 28 29
-127.186871 -52.337033 1694.465065 107 61 57
-128.120756 18.658760 1682.111359 71 42 43
-130.066097 154.461062 1662.264252 130 97 76
-124.407160 92.305279 1669.499207 166 123 104
-124.407160 92.305279 1669.499207 166 123 104
-123.027253 15.018688 1682.870674 145 111 95
-120.738983 -29.127824 1689.440727 74 42 40
-121.899331 30.718637 1680.082512 84 47 41
-124.105048 137.876797 1664.444160 64 33 31
-119.252515 21.040545 1681.150818 143 103 87
-122.318494 177.628934 1656.782532 37 23 24
-121.198142 112.384307 1668.185616 173 127 110
-121.476114 147.701299 1662.131310 112 83 67
-117.485344 -13.114823 1686.883163 59 34 33
-117.045629 -28.199685 1689.369011 122 90 81
-120.369387 204.283285 1652.812958 74 64 72
-117.193484 63.666207 1674.778366 101 59 53
-118.891716 192.132628 1654.103279 68 56 69
-114.402902 25.140294 1679.610634 78 51 48
-114.402902 25.140294 1679.610634 78 51 48
-111.445808 -143.737864 1709.588814 122 81 79
-114.318430 71.557927 1674.031639 145 109 92
-111.422098 -32.858929 1689.797783 159 121 101
-112.058377 14.779514 1681.718445 69 38 39
-112.568581 107.046783 1668.203354 145 113 96
-111.798894 99.004948 1669.378471 157 118 95
-108.223009 -37.370890 1691.065979 164 123 105
-108.499873 -15.920557 1687.027740 62 39 44
-108.499873 -15.920557 1687.027740 62 39 44
-108.642185 12.588644 1683.127975 133 98 79
-21.144556 -228.653169 1236.620808 121 82 76
-109.014082 131.879437 1661.946678 104 79 65
-108.836091 162.510252 1659.125710 104 63 48
-100.791657 -165.108180 1710.459709 127 107 112
-107.119548 140.958822 1662.864304 111 83 69
-107.661963 185.625863 1654.100990 78 69 83
-105.822170 107.810152 1667.799568 122 89 78
-100.734591 96.621972 1669.400215 97 57 59
-95.706451 -6.719463 1673.115349 177 128 110
-95.038593 -29.002395 1688.641930 122 75 67
116.469038 -51.432008 420.036077 253 255 255
-94.688129 33.865806 1685.642242 52 34 44
-94.688129 33.865806 1685.642242 52 34 44
-93.341762 24.651317 1690.023804 140 106 89
-95.119750 173.718393 1656.826210 78 68 82
-89.879388 -21.759605 1687.358093 137 90 78
-93.773830 158.754468 1658.033943 52 22 27
-93.509293 151.007390 1658.876419 60 31 34
-93.509293 151.007390 1658.876419 60 31 34
-91.151160 145.867419 1660.508156 101 75 60
-86.319369 -16.552465 1685.208130 139 90 78
-88.322043 -304.465103 1796.540260 38 23 19
-87.857229 114.001310 1664.807510 65 28 32
-84.451193 115.123522 1664.930725 113 84 62
-84.451193 115.123522 1664.930725 113 84 62
-84.730387 141.391134 1660.719872 115 79 66
-84.149599 128.141212 1662.798119 36 21 23
-84.149599 128.141212 1662.798119 36 21 23
-82.996154 111.049724 1664.898109 80 46 41
-80.139124 -7.271768 1683.578873 170 126 103
-76.939970 -13.104759 1684.810257 142 95 81
40.000048 -113.318682 948.230457 152 115 91
-77.565956 150.947571 1659.565353 135 97 76
-72.243482 -323.876882 1784.002686 44 26 21
-74.067384 130.977488 1661.133385 164 121 100
47.668970 196.989381 823.056507 11 6 7
-70.062518 86.420506 1670.142174 31 22 26
-65.838736 34.288535 1661.728859 99 71 56
-66.381305 -9.374096 1683.225441 122 69 63
-59.392697 -6.915203 1683.540535 179 132 115
-58.794421 35.523331 1686.398315 150 118 98
53.580528 201.038742 825.005341 100 72 64
-56.803691 78.306627 1677.816391 147 113 96
-55.924010 75.706154 1687.167358 87 58 46
-50.184083 0.987248 1685.042763 107 89 100
-50.531048 93.579972 1665.613174 131 95 80
-49.289635 113.126898 1663.219833 169 122 102
-49.263650 105.597317 1665.970802 91 57 52
-49.678519 79.180586 1679.239082 163 127 110
-44.625103 -4.603973 1682.113457 172 128 110
-44.287625 78.265351 1678.600121 171 133 112
-36.018899 -164.454818 1711.768532 79 63 75
-36.018899 -164.454818 1711.768532 79 63 75
-42.388991 7.821200 1705.731201 48 40 53
61.874622 195.552921 826.133060 113 80 68
-37.626493 -301.262975 1801.083565 105 72 65
-37.261653 80.970341 1671.040535 53 38 41
-37.788987 153.009224 1655.355835 49 27 29
-36.028340 137.088132 1659.293556 100 54 52
-31.875736 92.327267 1664.446831 145 105 87
-24.765478 37.809801 1669.626808 69 51 59
-24.616177 15.999743 1678.625679 110 93 96
-25.215414 111.602533 1662.897873 163 121 103
-21.813677 17.996438 1677.945137 93 62 72
-23.343280 140.554130 1655.838585 182 132 113
-19.531886 59.738618 1673.369408 77 50 55
-19.790842 103.183258 1662.976837 176 130 110
-16.717893 33.495685 1674.470520 154 113 89
-12.828745 -2.258689 1681.173515 138 90 83
-12.828745 -2.258689 1681.173515 138 90 83
-4.978394 93.199617 1661.356354 126 80 69
-1.907764 171.790564 1652.005768 56 33 29
-1.265487 189.544857 1649.939156 100 84 93
-0.327277 336.548996 1631.760788 37 24 23
9.134044 205.041242 1646.753311 111 86 99
9.883156 211.952019 1649.330521 48 36 47
21.207932 235.779023 1650.220490 118 93 105
30.555013 205.317760 1646.178055 119 92 107
29.980102 211.439371 1650.221634 52 40 55
35.645676 191.317368 1647.820473 126 104 107
142.804956 -49.688974 414.012814 255 254 254
48.123455 302.384901 1573.527718 52 38 19
48.123455 302.384901 1573.527718 52 38 19
54.786891 -440.384579 2048.192024 90 49 41
60.802579 280.000043 1540.921593 115 67 56
62.306976 275.106072 1542.314529 111 75 67
62.306976 275.106072 1542.314529 111 75 67
64.255488 294.678950 1536.799431 143 113 78
65.899676 276.304221 1541.302395 163 118 93
50.150532 24.217011 2050.959015 180 133 114
70.013487 269.410348 1542.286587 129 91 68
129.505646 -39.238110 734.649849 75 57 69
71.641058 294.189072 1536.381912 116 104 74
73.291975 277.325082 1540.480709 100 55 43
73.360157 286.034989 1536.336517 156 113 94
74.817050 271.485209 1541.793156 59 21 19
80.394232 20.097235 1680.686951 104 62 48
77.233791 268.014979 1542.254066 135 84 66
77.419084 274.258518 1539.363289 174 111 87
77.419084 274.258518 1539.363289 174 111 87
92.251527 -313.805008 1838.563156 180 128 112
92.251527 -313.805008 1838.563156 180 128 112
84.169453 16.177902 1679.306221 96 59 44
79.809397 302.808404 1518.862915 135 97 70
86.013436 263.214183 1544.552517 24 29 9
93.822080 13.182627 1681.104851 114 90 101
93.822080 13.182627 1681.104851 114 90 101
139.776623 27.302077 605.256319 125 98 101
91.083795 312.050104 1536.025620 107 71 47
92.573601 322.849751 1535.786343 5 5 4
102.404058 45.133913 1677.876282 90 46 46
104.131949 16.935354 1679.407310 100 65 48
105.235159 23.745197 1682.597160 180 133 114
97.816300 308.733439 1529.011440 119 87 57
111.545873 23.553145 1674.461174 176 133 111
137.791097 -77.399129 1000.050545 79 63 75
114.861095 18.394132 1679.786873 126 78 57
162.455714 -105.218840 717.993212 117 75 73
165.009439 120.820022 948.009968 48 36 47
188.113999 -75.810778 972.199154 83 70 84
196.061552 -65.795112 958.709049 191 140 108
175.193691 -39.795747 387.067199 253 254 254
203.363609 34.881473 1037.148762 85 52 40
204.493451 23.100355 1037.149429 176 133 111
183.374023 33.955133 585.394669 150 116 95
172.723961 19.551000 348.919296 57 35 37
-641.168261 -340.749145 719.893503 103 60 46
-630.171347 50.175083 689.020777 87 58 51
-1538.644981 129.256892 1096.542263 143 107 92
-637.407351 -169.725788 709.538460 130 88 67
-637.407351 -169.725788 709.538460 130 88 67
-636.441231 -158.292389 708.636379 78 56 68
-636.842251 -166.867673 710.729599 123 78 63
-631.063128 36.765668 693.429232 153 116 98
-637.508535 -169.697344 712.377739 168 126 112
-630.633116 50.509822 695.046520 86 57 50
-637.010622 -165.697193 714.341688 122 78 65
-632.218361 6.055462 701.829290 90 57 43
-626.245356 177.810729 686.702871 77 49 45
-636.609125 -221.047592 723.634005 62 38 47
-627.813196 175.903630 690.593100 134 102 81
-628.709507 155.474639 693.733358 145 110 93
-628.358793 178.603065 694.328785 76 53 47
-632.280016 8.319473 709.054422 153 114 96
-628.547859 133.743083 697.881413 139 103 87
-627.916670 158.025038 696.458817 90 59 47
-632.058764 -19.016689 711.868095 84 53 43
-628.567266 89.335740 704.200697 149 112 95
-628.478003 156.049538 699.578047 145 113 91
-630.427980 -8.346043 715.138102 154 115 97
-632.502937 -14.936478 718.242025 92 94 97
-631.196404 9.602823 716.094160 102 59 41
-631.196404 9.602823 716.094160 102 59 41
-629.342604 70.193762 711.465120 87 58 46
-631.440830 -12.920563 719.129133 124 118 113
-630.208874 37.121227 716.718149 92 63 50
-630.957747 -16.143957 721.390009 108 108 106
-630.957747 -16.143957 721.390009 108 108 106
-630.295515 23.732996 718.413782 84 58 49
-633.824968 -8.883298 723.043966 150 111 100
-632.398939 -23.202284 723.669386 127 97 87
-631.038046 -21.192576 723.439980 118 110 111
-633.076715 -13.493221 725.292253 116 113 116
-631.365156 -17.893989 725.633955 33 28 44
-626.259899 155.109906 711.121464 82 53 45
-627.470350 153.198647 714.454174 138 100 84
-628.010178 89.283121 722.087193 88 57 52
-627.570200 120.488214 719.692326 138 106 89
-627.564526 109.057832 720.651102 149 113 94
-637.135506 -301.952863 757.078934 87 57 47
-626.303720 155.756688 716.903114 84 54 42
-628.979206 56.392300 727.627802 89 58 56
-628.202677 87.084442 724.954939 146 111 91
-629.542160 76.132262 726.597738 146 109 93
-629.322100 54.537439 730.543709 145 109 95
-636.406469 -300.993228 761.795712 61 54 62
-636.682129 -295.823979 761.817074 54 49 62
-626.950407 109.545195 725.817776 143 108 96
-624.077892 3.624588 733.186340 156 114 99
-636.532497 -298.499608 763.052177 100 98 101
-638.189745 -42.901626 745.360947 110 75 67
-629.523659 45.139760 734.612751 103 65 55
-629.456091 76.625830 732.385969 149 112 95
-637.032127 -301.943898 765.947247 91 94 97
-637.032127 -301.943898 765.947247 91 94 97
-637.549973 -340.113807 769.674969 119 85 73
-631.132984 43.223527 737.763882 151 117 102
-625.959349 184.295344 725.864697 75 49 45
-631.862068 -319.513702 769.127178 144 107 89
-637.107420 -302.260399 772.499418 47 40 49
-636.649275 -314.277530 773.333168 40 34 42
-625.552893 182.085860 729.106569 130 98 83
-626.037884 161.571348 731.876326 145 108 90
-636.966038 -327.421403 776.097965 139 106 88
-635.979176 -295.260835 774.752665 43 36 47
-637.550259 -321.728349 777.953672 98 58 40
-637.550259 -321.728349 777.953672 98 58 40
-637.423944 -330.558920 778.679562 75 45 42
-637.603378 -311.654997 777.627182 91 98 103
-626.443100 164.320683 734.983444 92 57 48
-625.042057 185.135877 732.702637 79 56 51
-635.497475 -300.059056 776.516914 48 40 55
-626.662207 107.124972 741.284895 145 110 89
-626.094818 162.015593 737.789488 139 104 86
-637.196302 -329.621625 782.660151 136 96 86
-629.631281 42.839271 750.046921 89 57 49
-637.543583 -339.187551 784.587717 116 85 71
-627.985859 62.561768 748.146105 151 113 98
-434.952927 31.118852 652.148247 146 111 96
-627.023077 76.371139 749.696398 85 56 45
-630.139685 -18.898308 759.704304 151 112 100
-628.501463 43.189034 754.872894 91 60 52
-628.674936 30.128384 756.446934 82 55 47
-635.737753 -314.437985 788.161945 54 54 62
-630.723000 -49.400082 765.091228 155 117 107
-635.022831 -285.040426 789.191771 59 53 67
-629.975462 -22.523300 767.942286 101 71 65
-629.633331 -3.229868 766.536283 86 77 86
-625.996447 128.536487 755.199146 83 54 46
-626.750469 93.646336 763.311815 143 107 92
-626.392746 82.251084 764.257717 146 110 92
-625.091648 129.188132 760.686255 82 54 46
-626.144314 95.981097 766.225863 89 58 50
-634.386587 -282.981110 802.242279 61 57 72
-626.283979 63.159156 771.322536 86 57 45
-622.618723 163.232315 762.068319 78 51 47
-624.164963 132.696271 766.366577 133 98 78
-624.261332 146.964204 765.632629 83 54 52
-628.307819 49.336609 775.806761 145 114 98
-624.598169 130.639148 768.373728 82 54 50
-633.327675 -241.295099 804.000950 98 69 65
-610.426426 99.229658 763.851500 133 98 78
-625.293159 114.445746 771.203423 86 57 53
-624.624395 162.386203 766.983414 134 98 82
-626.045942 97.584426 773.992634 80 54 47
-626.550436 64.459109 777.351904 91 58 53
-626.550436 64.459109 777.351904 91 58 53
-627.115726 80.992091 776.519108 81 53 48
-627.115726 80.992091 776.519108 81 53 48
-626.531219 47.577646 779.846430 90 58 54
-623.718500 188.341045 767.477083 129 96 83
-626.309299 160.229325 771.221972 44 34 43
-627.506590 -68.926656 792.752552 145 111 96
-631.160831 106.619370 780.780411 115 84 81
-626.812935 38.917407 785.301924 161 122 104
-628.320408 30.960238 786.968517 116 83 70
-623.834276 170.241547 773.284435 90 58 41
-634.074974 -330.531430 824.159718 138 100 86
-628.583765 -25.174636 796.679449 162 121 107
-634.470129 99.547815 794.765186 24 16 13
-635.241938 84.034705 797.599983 61 38 31
-635.241938 84.034705 797.599983 61 38 31
-641.715050 122.351933 798.527098 32 17 15
-634.834862 86.944890 799.772406 59 39 31
-610.163879 115.036488 786.709023 32 17 15
-633.445215 74.766922 804.316711 146 109 96
-632.658768 107.720673 801.329041 44 22 7
-632.658768 107.720673 801.329041 44 22 7
-625.946951 36.429307 808.613968 114 69 59
-633.293772 -97.852647 825.553608 179 134 117
-630.901146 140.881693 806.037807 163 122 105
-807.332039 -137.110901 936.497116 170 128 114
-635.099363 -81.753772 831.973553 82 48 25
-499.973488 55.237561 746.980858 23 17 18
-629.718828 133.944821 813.958073 26 17 18
-807.374191 -145.508063 943.920422 123 80 59
-629.424715 -149.603808 838.326931 142 114 108
-629.424715 -149.603808 838.326931 142 114 108
-638.571119 -280.256367 856.227207 119 76 56
-632.599449 -305.878592 854.867935 57 39 46
-632.599449 -305.878592 854.867935 57 39 46
-636.940861 -251.786208 855.248928 118 70 54
-628.351545 160.619617 815.367126 158 118 105
-622.134590 176.759446 811.796188 88 56 47
-631.143713 128.518212 821.928120 147 112 100
-629.946852 -319.454336 859.365845 130 87 74
-630.472851 156.806755 819.603348 57 25 9
-486.057234 113.783753 737.404871 32 17 15
-628.050375 -144.210935 844.947243 166 126 110
-638.411808 -287.907720 863.645077 160 118 105
-628.315210 -162.760460 848.157692 60 44 56
-635.660028 -213.640308 857.306957 118 73 54
-635.173416 -212.676620 857.133579 118 73 54
-628.752089 -148.040652 848.335838 119 77 65
-628.983545 138.950002 824.870586 27 18 18
-628.619719 137.530589 824.859142 27 18 18
-667.633772 -243.190980 880.834484 123 75 57
-624.649620 48.849455 831.472683 122 78 66
-652.086544 -246.741867 873.412037 123 75 57
-630.509663 90.565306 832.964516 57 37 26
-625.060701 33.587629 834.561348 139 104 89
-636.882496 -250.117421 866.115284 123 75 57
-635.377455 -29.205042 848.266697 174 126 111
-530.804443 -66.233516 787.931395 82 48 25
-630.209398 -60.433185 850.901031 47 25 20
-627.228880 -138.629305 856.478977 105 72 60
-631.184196 80.188054 840.625000 152 116 103
-636.917400 -110.432100 860.521984 170 128 114
-651.087141 -245.267510 881.974125 138 87 57
-636.994982 -248.989034 875.078297 138 87 57
-626.722145 -148.036063 863.224316 123 81 66
-635.369110 -218.111634 876.355743 120 73 58
-627.144527 -156.564498 865.915108 93 67 67
-612.893248 -60.279930 849.560928 63 43 41
-626.802778 -151.219201 867.763329 101 67 61
-604.616117 214.941692 824.135780 12 10 8
-110.835767 -55.323178 537.198210 144 114 101
-627.276278 -324.551654 887.003899 38 26 31
-626.696348 -136.518502 872.131729 94 65 66
-635.817575 -262.238669 888.989735 127 80 59
-622.160006 126.379526 847.653580 65 42 37
-653.761816 95.420420 871.108341 74 44 37
-622.160006 126.379526 847.653580 65 42 37
-622.015762 93.032396 852.842712 76 47 40
-629.185390 -320.651865 894.482040 134 96 82
-452.902937 -144.526637 778.479862 134 86 66
-622.848845 60.662729 860.216236 74 44 37
-113.506234 -59.689230 544.073534 130 88 67
-632.041740 -298.379707 902.137756 53 37 48
-625.496626 -27.488655 884.939098 155 120 111
-604.887772 58.624363 871.359158 76 65 86
-624.276876 -24.394335 893.800831 118 93 97
-622.346735 -124.690759 910.156822 35 29 30
-626.534510 -286.340690 927.572441 105 72 54
-626.011133 -312.529850 930.773544 125 90 77
-627.515316 -306.175876 936.003971 88 54 43
-74.828452 65.650517 529.529810 91 59 55
-626.160574 -262.905335 933.241081 54 54 72
-626.819277 -14.814712 912.069893 65 47 41
-627.958345 -20.610358 913.424110 43 39 60
-625.778341 -295.501351 938.082504 149 110 94
-625.561523 -313.332224 940.074158 119 85 79
-627.527237 -9.884505 915.639877 130 104 96
-572.515965 42.967546 872.948551 24 23 23
-621.472454 -106.565297 922.472572 93 84 86
-623.146296 -132.229471 926.603127 94 108 116
-623.146296 -132.229471 926.603127 94 108 116
-625.363111 -16.927257 917.970276 112 85 76
-625.363111 -16.927257 917.970276 112 85 76
-622.443151 -141.745138 931.066799 60 35 34
-624.655437 -4.778747 920.207500 88 64 51
-573.071337 -12.356464 885.494518 65 47 41
-620.185137 -115.311337 928.932095 33 28 43
-546.795893 17.013493 867.630959 37 25 22
-570.598936 -7.043858 887.314224 130 104 96
-620.249033 -151.037490 936.424541 94 64 85
-626.087952 -288.464522 954.752445 56 54 69
-625.912428 -288.390803 954.660606 56 54 69
-621.970654 -137.434149 938.324833 136 97 86
-621.970654 -137.434149 938.324833 136 97 86
-618.506098 -167.888832 939.349461 134 94 116
-564.975548 -13.621694 887.747288 112 85 76
-1625.381088 -64.551336 1650.605011 47 38 53
-619.272804 -171.433043 945.087051 79 52 55
-629.893637 -127.238953 949.713230 45 37 42
-617.299843 -179.272616 947.945786 185 150 137
-551.554394 9.578854 885.112667 132 102 97
-616.351128 -94.380021 944.249916 87 97 106
-613.848495 -101.886606 944.292831 82 88 89
-621.793938 -149.466753 955.104160 57 51 60
-624.995136 -125.273144 956.141472 45 38 40
-622.206783 -142.615461 960.054302 152 115 100
-614.496088 -175.283206 958.379078 159 118 109
-607.699347 -117.310286 949.481964 107 100 104
-621.346283 -150.287294 964.682770 126 101 91
-627.999306 -52.745926 963.295555 50 28 21
-627.999306 -52.745926 963.295555 50 28 21
-620.637369 -150.524855 967.754745 94 67 58
-617.621040 -136.381757 966.964054 101 108 112
-627.673721 -47.373083 967.098236 185 144 124
-627.673721 -47.373083 967.098236 185 144 124
-620.685244 -139.361537 970.709610 50 50 55
-627.599955 -88.123930 972.135067 39 19 18
-536.259890 12.405688 895.949459 118 102 127
-617.238426 -157.172167 972.217464 36 36 46
-678.578520 -383.226299 1041.857052 168 128 107
-678.578520 -383.226299 1041.857052 168 128 107
-620.192766 -135.164034 975.449562 169 126 110
-617.031860 -159.863544 975.485420 98 114 120
-532.646799 39.054731 895.315552 62 76 80
-618.770885 -165.689909 979.716492 107 118 119
-626.135731 -38.715127 975.922585 194 147 127
-619.946241 -157.077622 983.633709 152 131 124
-676.423740 -383.964705 1048.749352 108 63 50
-534.937096 61.970806 899.543095 15 14 18
-535.368204 -8.351687 910.535336 90 66 72
-627.436876 -94.946790 988.883018 124 92 87
-625.917387 -31.346956 981.865692 190 142 122
-625.917387 -31.346956 981.865692 190 142 122
-538.218880 8.071804 912.980843 190 140 123
-616.970587 -160.521388 989.533615 106 104 103
-619.251442 -155.578196 991.104603 125 106 101
-619.251442 -155.578196 991.104603 125 106 101
-629.445267 -298.972011 1013.531780 135 97 83
-625.511789 -194.795203 1001.579571 134 84 63
-624.276447 -24.885365 985.927010 200 149 129
-626.665401 -35.339767 989.848232 200 149 130
-539.449787 7.003295 919.157124 106 74 62
