ply
            format ascii 1.0
            element vertex 3192
            property float x
            property float y
            property float z
            property uchar blue
            property uchar green
            property uchar red
            end_header
500.770855 46.358371 1251.758194 94 77 81
497.525311 113.893151 1243.898487 52 36 38
509.993315 62.145239 1272.489452 135 107 115
489.280128 51.487166 1212.003040 52 39 46
495.050383 147.276294 1235.818863 34 22 22
500.732994 100.776386 1249.441624 38 28 35
500.564718 110.396004 1243.373585 117 92 89
504.535770 77.323347 1252.182961 120 92 109
494.925594 173.316741 1227.834892 148 133 139
511.135626 -18.038751 1263.429546 113 86 86
511.334181 125.205052 1246.368217 168 146 134
501.094866 212.182283 1221.320343 121 94 95
532.569170 0.508441 1281.596947 216 180 168
529.675198 109.441876 1265.386772 225 192 179
509.567165 183.178353 1216.581821 83 52 50
529.158020 164.573514 1244.408894 209 179 177
598.401356 -313.257933 1394.631004 161 126 134
606.612110 -318.943691 1405.510139 242 208 193
606.612110 -318.943691 1405.510139 242 208 193
550.204802 127.090788 1266.453362 226 193 185
600.802135 -98.889607 1371.470261 182 142 139
507.294130 234.261012 1153.112411 140 106 98
626.055574 -254.198575 1415.532970 79 46 50
601.647663 19.833496 1360.090637 108 71 65
605.804634 22.551532 1362.549305 154 123 101
619.833422 -86.709625 1391.672516 177 137 131
685.183191 -405.347776 1519.887543 106 89 99
683.007193 -399.662900 1496.034145 108 93 100
666.782713 -250.973201 1455.408859 128 110 115
666.782713 -250.973201 1455.408859 128 110 115
676.472425 -218.452573 1466.466808 203 175 160
-198.657477 -97.312313 723.283005 111 81 77
-156.831193 93.051755 738.383675 89 65 56
-149.342000 127.140319 727.533245 45 27 30
-148.518050 133.860517 726.573324 53 33 30
-147.604549 130.790138 725.702095 119 85 74
-148.349822 100.600505 738.829565 187 142 126
-154.776251 -26.796800 757.756948 77 48 34
-142.632914 118.830097 729.900551 198 158 141
-147.241330 63.889235 743.206120 207 166 142
-147.669089 60.357445 744.328690 213 174 148
-145.360839 108.734655 738.615131 140 103 78
-146.556401 89.591688 742.461681 143 108 85
-147.320700 94.257241 743.327188 112 84 71
-143.539548 118.318236 736.600208 92 61 49
-142.545259 122.525752 736.400175 47 34 32
-147.148144 -26.779670 760.089731 65 43 37
-147.147357 -110.989821 770.400190 47 32 24
-147.478855 -125.495732 772.185707 50 31 25
-331.695271 -238.050675 1163.798141 195 166 162
-48.630539 -70.739096 685.156822 123 108 117
-48.645702 -54.888797 694.845247 138 113 121
-43.883947 -75.001329 690.103245 102 91 92
-36.042884 171.495438 655.967712 81 68 87
-43.473458 93.475902 677.915668 59 47 45
-42.884851 -69.946480 691.334248 124 109 121
-43.556774 -79.625332 693.806505 37 32 29
-42.896637 -110.987234 700.664139 67 48 48
-40.073705 -74.909794 693.843651 104 89 93
-42.210799 -136.259687 706.961203 145 122 118
-42.210799 -136.259687 706.961203 145 122 118
-34.616718 150.910628 669.306326 67 38 44
-34.319788 171.094978 667.276955 63 31 26
-36.415458 -83.181500 697.518063 83 62 67
-31.906036 160.755241 670.452642 67 38 30
-37.514052 -138.618493 708.839512 76 58 65
-34.146839 -68.844700 700.844002 24 24 24
-36.652920 -47.277498 703.855753 101 75 84
-40.240583 -34.410495 718.733549 155 133 137
-3.111256 151.007760 633.217859 67 38 30
-31.669781 -101.440215 713.394308 175 153 155
-32.434899 -198.166776 725.739145 167 146 147
-28.219748 -67.943364 706.851196 29 28 29
-31.984544 -204.130650 727.129078 195 166 162
-23.586170 160.623789 679.984331 134 92 100
-22.434130 -201.915097 712.598276 195 166 162
-30.188221 -112.624025 719.409752 156 136 137
-30.080599 -105.152047 718.660355 97 71 83
-30.312026 -224.371719 731.231499 198 165 161
-28.492829 -92.867631 717.383957 192 170 170
-27.281550 -86.617345 718.553448 107 75 89
-22.372799 -67.090744 712.624502 30 26 27
-16.736630 166.196012 685.732555 78 62 79
-21.897705 -132.900715 729.499674 143 122 140
-20.643622 -133.575034 731.419039 98 68 83
-18.420839 -139.639282 734.032202 108 82 90
-15.847264 -145.069754 737.219143 89 64 73
-15.641689 -150.942791 739.244127 138 119 135
-13.505821 -150.833476 740.385866 89 63 71
-4.929037 -184.127355 746.780872 70 66 65
-6.847252 -226.569223 755.382061 176 139 131
-3.707269 -208.489394 755.749750 203 171 159
0.279794 -185.917938 756.575823 180 153 148
-42.798224 136.311591 823.801994 139 112 99
-42.798224 136.311591 823.801994 139 112 99
4.325027 -183.984160 768.883038 105 83 96
-50.940526 43.641412 908.749294 57 25 23
15.427209 -182.925701 773.935938 77 60 75
18.324581 -217.137432 776.918936 169 134 122
-47.529641 69.030613 909.557533 53 37 32
-47.928673 65.145636 911.080074 131 129 125
-46.530092 27.001554 915.382767 232 160 142
-44.032508 33.872747 917.710114 57 31 23
-44.032508 33.872747 917.710114 57 31 23
-11.785321 60.852635 836.180592 44 27 21
24.288167 -201.826072 780.213690 27 22 22
24.288167 -201.826072 780.213690 27 22 22
-40.941674 128.024840 908.547592 89 67 49
-40.941674 128.024840 908.547592 89 67 49
-40.941674 128.024840 908.547592 89 67 49
-41.298252 24.562493 921.779251 73 28 16
23.651573 -186.428964 783.806849 113 94 106
24.007083 -189.838350 784.028196 112 94 110
28.727579 -225.195980 783.308172 143 119 127
30.394679 -196.888399 781.248903 105 90 112
29.603806 -226.621318 787.605047 119 92 98
32.042566 192.008698 741.072750 116 87 82
32.479376 -194.649243 786.754465 24 22 24
34.798890 -198.273945 786.056280 97 81 88
33.638346 -232.620001 794.607973 55 41 52
34.625003 -211.836267 791.496944 66 52 61
-3.418884 151.999545 864.357471 129 98 88
37.980312 -191.188490 797.996998 62 43 64
42.079794 -212.115502 799.622011 68 53 60
42.079794 -212.115502 799.622011 68 53 60
42.682409 -191.864681 803.223515 62 47 61
47.893575 -212.392902 803.443527 71 55 66
41.912287 -84.621495 811.016560 31 22 21
49.359334 -213.514972 806.053925 120 107 128
47.704062 -191.704631 808.576012 75 53 70
49.900433 -230.697727 809.716129 122 104 119
53.151435 -235.284710 812.152767 32 24 22
52.504337 -227.839971 813.335037 61 42 47
53.567570 -225.991297 813.806438 71 62 66
37.141213 177.893412 811.735535 118 90 83
54.774570 -226.905894 814.065742 48 35 38
57.611537 -233.277249 817.070103 99 79 94
60.203141 -221.852612 817.496014 51 35 41
61.631119 -209.707093 817.714119 122 105 129
63.183677 -220.319867 819.548416 60 43 52
64.208078 -221.670818 820.203876 123 103 115
64.605969 -213.257051 819.823742 115 101 126
65.842211 -215.721321 824.149895 61 47 53
69.065636 -249.318337 831.440830 102 87 94
69.233549 -213.346148 827.695084 135 119 142
71.395403 -250.261164 835.274029 142 125 137
70.839548 -208.022952 833.026314 123 102 125
72.524905 -235.224438 840.730762 132 113 129
79.595643 -178.738987 841.023445 138 115 127
78.146845 196.695840 790.380049 185 153 138
82.567674 -209.238505 841.810226 51 38 48
81.906122 -179.986465 841.144562 82 55 69
87.291855 -215.655923 843.158531 148 124 135
85.782290 -177.197921 845.064354 87 63 73
88.619995 -236.459208 847.230530 97 70 78
88.390321 -213.890791 844.497776 89 63 69
83.625424 -167.902112 855.503750 40 34 38
89.269042 -190.716398 843.055916 128 109 130
90.807283 -205.637312 851.401615 103 83 96
94.368690 -258.331227 865.636635 136 110 126
94.166911 -170.031393 853.311920 102 76 81
96.833783 -192.876065 849.852085 150 127 122
62.555552 132.275367 940.031147 110 85 78
98.008096 -241.783619 873.460865 204 172 168
97.178441 191.607821 812.211227 184 148 132
99.970734 -148.698974 869.332886 39 33 34
100.230515 -148.638880 868.664742 39 33 34
108.891010 -254.050708 878.674698 176 139 133
110.105193 -162.495792 865.729713 146 119 125
110.837781 -159.685874 868.263245 153 128 127
92.439121 2.336404 925.755692 111 91 85
108.953071 -147.421825 892.791748 94 68 80
119.645846 -177.007735 871.127033 89 91 95
114.069974 194.224560 829.095650 186 152 133
117.083061 -79.659355 893.267727 96 75 74
117.083061 -79.659355 893.267727 96 75 74
111.492980 -8.472878 912.015629 51 39 44
124.737728 -122.373867 879.322529 95 68 83
113.864791 63.591534 895.956802 134 108 98
117.098761 -5.172328 905.655956 124 96 90
121.397281 196.660376 852.945995 75 49 43
123.670340 -25.659707 890.700436 38 31 33
130.431497 -103.511119 884.094429 107 80 92
131.938088 -96.775907 884.983826 103 77 87
135.235310 -157.889903 891.041470 198 166 159
133.662903 -54.703426 879.973316 109 90 107
134.446621 -63.043773 881.734753 129 106 113
135.166156 -74.058521 882.198238 127 102 106
135.090196 -68.678707 883.806419 102 74 89
129.123497 100.034773 879.212189 62 48 61
135.826242 -83.668399 886.533451 124 99 110
136.045861 -34.021008 874.988461 115 96 108
136.059010 -33.954471 874.955273 115 96 108
136.161387 -29.795456 875.885105 35 29 32
136.161387 -29.795456 875.885105 35 29 32
136.993742 -54.145896 884.083271 107 89 107
140.406156 -140.536213 892.603683 99 93 94
138.428783 -70.568556 887.606907 80 60 74
140.949881 -144.111085 893.873024 196 164 156
138.671267 -55.514449 885.839748 59 42 55
135.765767 29.783845 883.538342 63 49 56
142.974412 -138.773882 898.957634 203 171 163
144.627106 -149.860144 893.655586 195 165 160
145.774674 -268.391752 919.709682 190 149 140
141.866529 76.808506 872.884750 137 119 121
142.532766 89.554632 869.715881 139 122 124
143.339384 168.861258 848.392773 144 124 118
145.090115 7.142810 888.403320 157 134 135
145.065248 66.067123 876.551723 151 128 131
149.031055 -141.146171 907.234859 180 143 138
144.214213 197.619510 849.779224 124 107 115
148.399270 -59.882706 890.654659 44 35 39
144.884181 187.885404 850.126362 159 141 143
152.701056 -55.886573 891.107178 90 75 78
155.925608 -55.152273 893.817997 85 81 76
156.895995 -9.745301 896.972561 58 47 46
155.185235 110.749280 882.483387 157 129 126
155.185235 110.749280 882.483387 157 129 126
157.054186 205.969357 862.063122 73 52 51
162.410939 -14.825891 900.369644 88 76 85
161.494446 19.673792 898.989868 160 137 137
165.558791 -84.777719 915.450001 205 174 169
164.475489 -16.719925 903.451824 191 162 152
163.779843 26.098001 901.337051 188 158 151
163.779843 26.098001 901.337051 188 158 151
165.914798 -12.758282 908.112812 196 161 150
165.811610 -6.069100 908.318233 116 98 114
165.116584 51.286751 899.067116 194 162 155
165.116584 51.286751 899.067116 194 162 155
169.014418 3.528151 909.379673 205 174 166
166.009557 205.977464 872.684669 97 77 70
168.391573 66.883850 901.967907 208 176 163
170.198441 17.683068 909.166813 202 171 169
178.036118 -267.492890 955.478096 227 187 177
173.801482 2.166768 912.003994 214 177 168
171.486247 136.409461 895.019054 135 134 121
174.161828 65.044755 898.469639 209 175 162
176.745999 13.339059 917.550945 161 128 118
174.116576 207.345700 881.108952 75 56 50
178.197229 123.695230 905.141449 99 57 56
181.850445 101.759148 911.407089 148 120 131
183.239639 110.678887 911.682034 255 235 231
183.239639 110.678887 911.682034 255 235 231
183.124006 116.953635 910.758591 255 229 222
185.984254 114.208591 914.378262 97 59 49
185.984254 114.208591 914.378262 97 59 49
186.067545 138.521767 907.264328 95 93 88
206.421256 -259.084439 980.351353 159 134 135
211.994505 -247.235870 982.773209 167 149 153
211.994505 -247.235870 982.773209 167 149 153
206.485009 206.200719 912.110996 128 108 106
208.089614 150.508082 924.666119 146 119 108
224.757838 -255.836654 998.883724 175 141 141
218.946958 -16.296582 966.127396 169 131 133
221.427083 -75.411254 981.095505 210 175 170
227.394891 -103.448808 987.909985 211 176 172
228.169370 -102.486873 984.266186 211 176 172
228.524113 46.069980 978.730202 223 185 174
234.103942 -78.194147 987.144566 131 105 91
236.858344 -103.500271 993.157482 186 149 141
237.128305 -112.047565 995.647621 135 99 89
237.902355 -115.390337 996.847916 191 155 146
237.953734 -115.297055 996.600056 191 155 146
234.443355 144.957721 932.567024 141 101 76
244.517303 -67.500544 988.830948 37 29 28
247.029734 -118.372238 1002.050209 79 57 46
238.693357 126.026428 957.158470 202 169 156
245.960474 -81.471139 994.190311 55 45 39
239.061499 184.320736 927.087116 109 86 80
244.411445 5.987475 985.980797 63 44 39
240.631175 143.283856 940.398979 71 37 25
240.631175 143.283856 940.398979 71 37 25
238.476610 206.453371 935.157871 59 39 34
246.945357 -33.678272 997.542953 96 76 67
249.882865 14.260055 941.903019 133 101 86
254.219222 -205.420756 1024.047375 173 131 129
253.878212 -180.488896 1020.827484 196 157 153
248.007321 -0.052083 990.362930 177 143 133
249.443221 -21.901818 996.407318 209 171 159
252.897954 -103.934312 1000.216866 137 110 113
247.168422 62.280852 989.462185 195 160 148
256.183410 -155.043864 1019.565105 57 40 34
258.174992 -160.692298 1018.833637 67 49 39
247.953582 115.188062 979.171753 195 162 153
259.450412 -186.011660 1026.331711 226 188 181
253.899932 -27.520287 1000.613689 40 32 36
253.103900 36.990103 991.497898 39 29 35
260.716176 -158.306825 1019.741726 120 92 84
249.019623 187.451577 961.527920 127 97 95
256.192112 34.373343 990.760326 133 109 96
265.078449 -184.351993 1034.124374 202 163 150
263.131356 -118.178380 1022.241402 173 147 146
251.937628 184.526157 964.230251 133 107 105
258.079505 29.968008 992.158794 155 130 126
260.336161 -26.940715 1010.929966 57 42 39
266.761255 -170.389557 1030.432892 102 81 77
268.000984 -200.210166 1038.868237 195 166 157
260.828042 54.861301 1000.048065 85 59 74
260.828042 54.861301 1000.048065 85 59 74
264.064145 -25.817019 1011.462688 129 108 111
257.852340 184.553015 970.122433 133 105 102
272.044563 -126.015139 1037.089252 95 69 80
275.050354 -192.750525 1039.447594 81 61 55
269.444728 -48.152804 1024.289513 46 32 43
273.686624 -132.538128 1035.830116 97 67 80
271.044660 -42.610785 1035.954189 57 42 58
277.214217 -163.368666 1039.426708 133 108 123
276.702857 -140.625691 1042.502213 69 47 59
280.271101 -218.128633 1052.555847 206 172 162
278.394246 -161.265635 1044.113731 155 131 141
278.455520 -147.130275 1042.939281 94 64 72
279.859161 -159.330761 1044.623089 108 79 89
284.511518 -160.837197 1051.434612 92 64 73
285.079861 -172.169101 1050.194454 98 68 83
271.530342 206.102610 889.120865 58 41 36
289.828157 -170.588958 1056.927967 128 104 114
292.293644 -184.936118 1060.541344 103 75 89
292.703414 -136.288285 1138.316917 172 144 146
295.863414 -190.836430 1065.241528 149 121 142
298.548985 -234.871125 1072.029686 204 170 156
294.201064 -50.236976 1181.314468 129 103 102
299.338460 -185.574675 1070.703220 94 63 74
281.949615 193.154979 935.071373 79 54 45
302.584910 -233.386922 1076.721001 126 96 80
296.893382 -49.394125 1183.526134 72 47 51
301.223850 -195.530653 1070.115566 99 69 80
300.780272 -46.868402 1189.297581 102 77 72
306.910610 -242.046571 1082.590389 205 172 160
285.320187 204.522395 873.325348 82 57 52
302.596998 -48.666564 1189.584351 73 44 44
298.484778 45.691442 1177.468681 87 45 31
307.517910 -217.542720 1074.412155 76 56 55
303.120375 -44.930997 1192.853642 48 34 36
306.609201 -181.255960 1075.239086 153 129 137
309.326839 -239.658737 1087.881947 114 87 74
287.830949 198.884308 905.362797 157 125 109
308.202243 -195.600510 1081.174755 94 65 79
301.077199 35.463038 1180.786133 104 59 46
301.077199 35.463038 1180.786133 104 59 46
308.551431 -121.333921 1211.050034 122 94 98
306.287456 -46.054947 1195.299149 108 84 80
306.287456 -46.054947 1195.299149 108 84 80
303.833961 28.883174 1183.685303 255 217 202
291.163993 198.778665 937.913799 161 125 112
308.806419 -44.051364 1198.181820 50 36 38
306.109667 35.733601 1186.196899 116 55 52
314.096355 -223.243260 1081.724453 80 60 56
314.583850 -197.743320 1087.585926 46 33 35
315.697575 -201.736355 1088.339520 131 105 111
314.323187 -43.399647 1202.168560 38 27 30
322.032833 -294.805551 1105.024433 187 142 135
319.167662 -133.831537 1213.797283 36 28 32
320.104504 -128.725243 1215.399456 113 92 91
312.789464 35.761178 1189.642811 58 37 29
321.158624 -228.509450 1089.676666 73 55 52
320.798874 -213.769674 1093.586159 80 55 67
321.885824 -210.599542 1094.902802 130 105 117
322.903347 -166.538775 1147.644043 129 104 114
325.652504 -247.980118 1102.848339 102 72 59
323.929834 -205.570889 1097.870636 38 29 32
322.432876 -42.769596 1212.872696 53 38 40
329.109216 -289.400768 1112.827587 187 140 136
326.047897 -209.316230 1099.930096 123 98 102
302.188730 200.807858 919.220161 115 83 71
327.433276 -169.927800 1151.382828 127 105 113
328.287315 -232.962251 1097.237492 58 42 35
327.679658 -211.392307 1101.359272 98 64 75
327.679658 -211.392307 1101.359272 98 64 75
327.301240 -60.043770 1219.330406 41 27 26
329.502654 -208.989954 1106.626892 136 112 118
329.502654 -208.989954 1106.626892 136 112 118
330.534697 -212.892556 1106.220627 126 98 107
331.408405 -235.216022 1101.582336 70 56 45
332.229233 -217.325354 1106.590652 143 119 125
333.706689 -211.621666 1107.725143 37 24 29
328.059578 80.524695 1202.970791 115 99 58
334.369802 -40.661532 1225.529099 50 35 38
339.132714 -106.773949 1232.061481 128 97 103
338.702774 -238.323021 1108.824921 47 36 29
338.126588 -217.027521 1113.174534 96 67 73
338.126588 -217.027521 1113.174534 96 67 73
310.048413 205.863523 901.118469 173 132 121
339.692163 -171.801233 1166.072464 106 85 94
342.937541 -278.092790 1119.060040 145 119 132
341.777682 -94.368148 1236.875820 123 95 93
344.365740 -290.029287 1123.301792 165 137 143
342.241383 -239.958620 1113.800907 51 38 36
342.880321 -222.164488 1118.994045 126 103 120
344.263268 -216.515732 1119.400787 37 23 29
348.265481 -283.425069 1128.259659 103 73 75
346.632218 -237.259650 1120.653152 44 32 24
346.875596 -245.361972 1116.212177 78 48 42
346.875596 -245.361972 1116.212177 78 48 42
348.448586 -97.653335 1242.057133 33 26 28
322.858119 195.720983 1002.235889 112 79 75
350.184655 -270.466852 1132.424355 166 140 128
350.939512 -283.024240 1135.898495 93 59 57
351.568651 -287.233853 1137.650394 193 167 153
350.284100 -264.632964 1132.078266 158 131 126
338.349390 -183.120692 971.365452 98 64 75
351.908302 -254.184008 1129.013920 176 148 137
353.665853 -263.315582 1132.283497 57 38 31
354.185581 -156.170368 1207.387447 129 99 104
355.901647 -280.068445 1140.838528 51 34 25
355.901647 -280.068445 1140.838528 51 34 25
354.984808 -267.680645 1134.483719 178 155 139
354.866338 -260.237765 1134.848118 145 117 112
354.249001 -229.094720 1131.543827 89 60 68
356.892586 -88.531882 1255.574512 39 29 30
356.293988 -208.735275 1149.296379 130 104 121
358.498073 -260.836291 1138.525200 73 46 41
358.848763 -65.772355 1254.366493 48 35 37
359.737325 -275.434875 1141.528130 136 111 95
357.412720 -38.922638 1247.587013 108 87 88
358.409500 -55.871868 1250.707531 50 34 37
358.667779 -252.596259 1137.642288 110 79 63
346.470284 178.270245 1210.145473 40 24 21
357.506824 -214.154077 1138.378906 47 38 40
330.957675 -24.649152 860.520840 72 47 51
358.914137 -40.713495 1247.108269 78 52 61
361.506128 -273.293638 1143.189812 80 55 44
360.028362 -37.077039 1251.527119 53 36 41
326.196241 211.784363 916.058922 103 76 68
362.154198 -68.786848 1253.172112 122 100 100
362.102056 -252.876306 1138.810825 171 144 125
361.291814 -231.662726 1135.798550 126 94 104
363.341808 -260.018206 1142.624187 58 37 35
364.227605 -277.862668 1142.995739 198 174 162
364.787889 -86.311656 1257.412720 126 96 101
364.483929 -273.402071 1144.098663 174 152 140
364.513540 -273.140526 1144.406128 174 152 140
363.000321 -38.273269 1253.252125 109 90 95
364.516401 -40.071037 1252.704144 81 55 63
365.631628 -36.285356 1257.258415 48 34 37
365.789485 -235.832262 1145.294285 129 101 108
366.655827 -231.423807 1145.201302 96 67 70
366.879582 -221.895885 1145.224190 41 28 30
372.130537 -309.624314 1159.688950 159 122 116
371.417522 -248.318362 1144.518661 175 148 133
375.115776 -143.949330 1224.947834 141 114 109
373.359203 -17.931196 1264.010620 117 95 94
373.359203 -17.931196 1264.010620 117 95 94
374.587750 -257.385397 1152.704144 182 149 141
374.995208 -218.088651 1156.005001 110 85 94
380.791950 -308.483219 1165.339470 197 167 153
387.736750 -242.182279 1254.574966 44 27 34
378.107786 -222.256970 1157.536507 43 27 36
382.357645 -270.201135 1160.640144 136 105 95
382.357645 -270.201135 1160.640144 136 105 95
378.789854 -104.921389 1181.352901 70 52 60
383.135557 -280.109501 1162.140369 165 127 117
386.032724 -316.197324 1171.701813 136 102 86
385.552311 -302.380562 1165.359020 178 149 134
385.466886 -285.838389 1165.700912 215 184 170
385.520840 -285.287571 1164.351082 215 184 170
387.157083 -244.490170 1159.423065 189 163 151
392.192101 -294.780111 1171.124744 167 132 125
379.667830 186.470175 1239.018536 48 37 47
390.393877 -212.748218 1180.088902 35 30 35
389.729691 -220.629573 1169.606209 44 27 34
358.533263 200.543928 1009.667301 126 95 82
393.876815 -255.529737 1177.295399 215 186 174
394.118285 -250.567913 1170.110989 212 181 173
395.836353 -242.879272 1167.545795 178 149 136
365.266228 201.646876 1045.425892 134 100 93
356.236172 216.141129 944.235420 104 75 68
402.022219 -209.515214 1193.197155 36 30 34
405.791903 -271.871638 1188.553333 80 48 50
406.120586 -248.233438 1182.703686 94 62 59
409.581566 -95.409334 1254.053879 129 99 100
409.581566 -95.409334 1254.053879 129 99 100
414.032698 -313.340378 1204.034901 119 82 69
411.894751 -270.774102 1196.479130 103 77 71
410.215473 -209.005570 1194.042873 105 82 91
405.420303 87.768185 1247.301674 129 103 97
413.054609 -203.523183 1200.469971 40 34 36
412.296057 -240.448785 1180.362797 183 152 142
412.864494 -212.572074 1192.738628 44 29 36
405.386782 130.985570 1242.137337 108 84 84
419.913626 -308.240366 1212.296295 42 20 24
420.460367 -324.375033 1211.068535 161 134 125
418.307924 -269.586182 1206.289577 176 147 136
404.884958 149.734497 1234.315872 90 73 81
402.848911 181.941700 1225.753117 43 30 34
409.641361 81.412488 1248.269558 61 39 41
415.867376 -236.047578 1187.876606 102 75 60
409.435797 98.259085 1245.849323 60 37 39
418.370104 -250.916433 1200.551605 102 69 61
419.383335 -247.293830 1203.600311 171 141 135
420.518112 -264.888811 1206.245422 173 147 134
420.091867 -260.665941 1203.493977 98 66 63
420.091867 -260.665941 1203.493977 98 66 63
409.342003 127.078450 1242.797279 55 39 42
372.242951 217.229795 962.451363 101 72 66
422.401285 -270.437145 1209.149647 70 44 54
420.259285 -208.034706 1195.699787 124 99 105
420.224047 -10.599725 1249.683285 115 83 90
420.224047 -10.599725 1249.683285 115 83 90
389.336944 204.933929 1070.444584 129 89 87
422.841358 -187.303150 1211.398029 119 91 98
425.008678 -245.551777 1205.374718 75 49 44
423.757792 -196.124578 1210.996914 41 33 38
423.827124 -206.510830 1204.212666 43 29 30
381.494355 212.149000 1002.518272 92 66 56
386.769509 205.460405 1038.297558 122 92 82
425.205564 -226.480150 1201.130199 32 26 27
417.416000 137.468982 1239.542961 155 123 111
379.173923 219.529343 968.488979 96 70 64
417.478800 145.981264 1236.082840 60 47 60
432.150459 -276.680136 1209.884930 74 50 49
431.987572 -266.322041 1208.358002 64 43 40
429.968596 -189.751375 1214.625931 41 30 36
428.275490 -17.863390 1251.915264 34 26 27
419.136477 154.353607 1227.115822 104 81 94
457.522154 117.791247 1499.320316 63 40 49
434.972143 -227.965498 1208.310890 41 28 24
434.915352 -199.040735 1214.847469 46 29 33
433.745241 -18.911505 1244.173622 31 25 26
433.745241 -18.911505 1244.173622 31 25 26
433.745241 -18.911505 1244.173622 31 25 26
437.563133 -229.612947 1206.991005 125 104 93
442.735720 -272.909474 1218.865681 209 178 165
429.732752 149.941540 1234.586906 81 65 74
446.661997 -239.090085 1233.948040 191 162 153
444.242668 -201.827502 1218.682957 132 108 110
444.906807 -189.790571 1224.135590 44 30 32
444.945335 -178.611434 1225.250626 41 35 36
446.011257 -219.217229 1215.339375 39 26 26
442.931795 12.406665 1255.839348 154 126 112
448.980904 -216.936207 1218.811035 45 33 24
446.390867 -25.564826 1241.861153 125 100 105
452.436733 -213.767433 1221.594429 40 30 27
449.000549 6.742927 1256.413174 53 39 42
453.713989 -119.449949 1251.473713 107 82 92
440.256500 136.953890 1224.353218 124 101 92
454.402447 -179.351854 1233.504486 46 30 38
449.264336 87.980855 1248.131084 61 41 52
449.404240 97.305328 1247.773933 63 40 49
449.270201 99.728924 1246.102428 63 40 49
467.978668 -262.295794 1249.549961 207 173 168
462.985039 -167.778504 1241.334248 39 27 31
463.421726 -170.997751 1238.319588 118 95 101
464.934206 -179.486907 1240.029240 134 110 117
466.886806 -190.013719 1242.488861 44 27 35
459.507656 43.155593 1253.995514 47 31 38
453.974628 141.210020 1240.238380 108 86 86
467.275620 -108.771265 1255.877686 57 45 48
454.404211 149.988663 1236.077118 82 66 78
468.725920 -174.682605 1241.711426 130 110 119
414.467716 223.330522 1001.638031 97 71 60
464.149284 -19.626541 1244.091320 31 25 27
469.634724 -141.669750 1244.911766 53 39 42
457.587051 147.340059 1239.904404 31 22 26
457.587051 147.340059 1239.904404 31 22 26
470.886755 -94.615740 1260.635948 66 46 53
480.380344 -291.900015 1269.470501 183 145 139
471.360016 -154.773891 1247.625351 41 27 31
467.354870 12.140556 1256.407642 163 129 116
460.405064 146.631348 1243.289566 48 35 44
475.431919 -145.953798 1247.554493 109 87 90
456.575537 193.477023 1212.382126 174 133 122
486.950350 -138.911903 1298.022366 40 28 30
478.589678 -140.692914 1253.560925 40 27 31
467.200136 127.220786 1241.848278 157 126 113
467.200136 127.220786 1241.848278 157 126 113
467.381191 139.767838 1242.063332 141 112 105
478.855085 -32.809043 1262.637997 62 46 53
481.613016 -122.875214 1257.735348 111 89 91
482.103825 -112.942481 1258.214092 58 43 49
473.791122 67.445487 1250.260735 60 39 49
478.047371 -6.874993 1256.495476 58 44 46
478.047371 -6.874993 1256.495476 58 44 46
484.960985 -145.198822 1259.798622 83 57 61
485.105085 -126.254141 1260.180187 40 28 30
479.495955 -18.324037 1251.988316 27 23 26
468.917656 152.562809 1229.671097 106 79 98
476.605368 62.189692 1252.119350 102 81 81
485.333252 -129.698408 1256.296921 109 89 89
467.135811 178.449214 1221.281528 115 98 101
467.135811 178.449214 1221.281528 115 98 101
472.707701 142.240095 1241.287708 68 45 50
353.594089 181.636369 581.197309 106 77 71
487.086821 -106.971431 1261.355400 110 87 92
486.482286 -96.757674 1258.486366 59 47 50
469.787836 174.864328 1225.162315 124 93 100
488.371515 -116.528201 1258.056259 121 94 105
490.510130 -110.009813 1262.198353 42 29 32
491.048574 -91.242683 1263.844204 106 82 88
490.713644 -79.847842 1259.990120 64 48 54
485.398102 36.423853 1251.826000 111 88 99
485.398102 36.423853 1251.826000 111 88 99
488.382339 -23.815048 1248.974705 111 88 92
488.382339 -23.815048 1248.974705 111 88 92
491.707134 -29.589859 1263.544750 64 49 57
495.089769 -93.696541 1265.817165 37 25 30
494.165564 -74.411184 1264.623070 110 87 89
471.682119 205.334663 1198.361015 182 142 129
485.644722 105.084896 1243.996811 116 86 93
504.850674 -155.225170 1273.862648 104 78 68
500.135279 -60.726953 1266.703415 42 28 33
496.425152 5.698858 1257.830715 111 90 91
484.780025 166.392863 1226.840115 101 82 93
496.261740 23.206660 1255.610752 102 81 90
501.148796 -43.743160 1265.999985 48 34 42
502.046490 -45.857611 1262.557888 120 95 108
502.137136 -54.160720 1264.410400 122 100 110
498.038816 32.421273 1254.545403 42 30 37
502.290583 -37.568218 1261.913109 120 95 108
501.255751 -3.755167 1258.628178 94 72 77
458.669090 223.077083 1084.208870 99 72 66
496.281862 89.249861 1248.125362 109 86 93
496.281862 89.249861 1248.125362 109 86 93
507.427359 -37.876523 1273.559666 96 73 88
501.715946 44.688767 1242.219543 116 90 104
501.715946 44.688767 1242.219543 116 90 104
496.964407 120.441556 1244.663811 110 89 81
497.550344 113.953090 1244.042015 47 34 36
506.055546 39.142886 1258.800888 122 97 91
506.055546 39.142886 1258.800888 122 97 91
486.614227 213.876772 1195.814800 172 133 126
500.651503 110.550940 1243.853378 110 86 82
503.630924 77.226245 1247.729301 116 90 104
503.620434 99.755406 1247.748756 106 89 98
467.931700 224.654484 1093.024540 107 79 69
475.340748 223.677278 1127.772903 125 87 82
509.014177 53.619397 1255.453300 35 24 22
460.772133 230.549669 1053.406143 108 79 71
516.522694 -27.645913 1273.604488 51 28 33
510.004234 35.696560 1234.706974 132 108 119
500.468445 175.760269 1232.749176 144 121 131
500.468445 175.760269 1232.749176 144 121 131
495.544338 210.117364 1213.351440 124 95 97
516.013861 8.162419 1273.657036 47 37 41
498.864365 183.786011 1223.968506 82 65 58
506.077147 114.199352 1245.592880 40 28 26
521.753979 -60.382301 1280.291557 58 37 37
519.439459 12.755913 1274.045944 208 176 159
513.256645 68.411493 1253.858852 132 108 119
510.751963 115.718567 1247.025871 141 120 106
517.111778 40.595073 1242.325592 53 36 38
528.552675 -91.725993 1287.488842 198 166 149
529.635143 -102.450693 1289.272976 206 173 161
523.937845 -6.165856 1280.184269 109 81 77
476.698494 224.754524 1099.720764 115 81 71
476.698494 224.754524 1099.720764 115 81 71
521.518278 74.094039 1273.289871 53 36 38
530.924034 -29.990935 1296.659374 62 51 43
525.210810 25.593948 1277.313328 223 183 171
525.210810 25.593948 1277.313328 223 183 171
515.210247 133.759940 1249.456215 109 68 65
519.393492 102.381766 1261.376858 212 180 170
529.246378 -19.836605 1284.504223 180 152 143
517.972803 124.090219 1253.878117 138 85 73
517.972803 124.090219 1253.878117 138 85 73
520.455027 112.582839 1256.679153 145 109 104
520.348454 131.099117 1255.211639 250 243 240
523.951626 110.268891 1264.422989 134 107 110
523.951626 110.268891 1264.422989 134 107 110
520.494461 135.940659 1252.278519 153 114 119
536.573744 -77.377784 1285.034561 196 165 160
517.659903 157.469702 1240.676880 204 174 160
523.438025 124.775183 1257.650089 146 85 74
536.915398 -28.774819 1289.182091 74 51 42
538.860989 -26.185220 1297.915173 164 133 116
531.174850 51.153028 1275.269222 207 175 163
526.001835 114.937735 1262.166691 147 91 94
530.516434 51.247346 1268.807983 207 175 163
525.909948 135.884464 1260.515308 132 77 79
489.822721 226.122332 1113.039780 121 88 79
522.821999 172.162700 1234.042740 195 168 167
524.050236 209.932971 1244.197273 67 41 45
519.123602 219.475460 1209.656906 175 137 125
536.218691 195.657837 1262.873554 114 97 94
536.218691 195.657837 1262.873554 114 97 94
589.274025 -297.697115 1391.100597 223 186 174
593.438339 -300.462842 1392.858124 227 191 176
546.653032 182.498312 1274.908829 191 160 158
575.342989 -92.617273 1345.396042 167 130 125
543.759203 204.502511 1250.435448 106 78 72
599.522877 -307.485557 1394.235611 150 119 129
598.729324 -289.136720 1387.941360 148 119 130
605.377483 -336.631036 1406.497288 234 197 178
605.377483 -336.631036 1406.497288 234 197 178
605.901384 -318.844509 1402.918148 233 194 177
589.117241 -131.628203 1363.399887 166 125 122
553.676558 184.271872 1262.429333 72 39 29
552.378988 220.889711 1257.673454 77 50 38
555.827665 188.903379 1263.786411 112 87 67
612.219810 -325.226760 1409.270000 158 120 129
560.517025 190.822697 1269.352341 55 30 23
567.762280 179.482472 1295.787334 205 175 163
590.708923 6.569376 1349.207783 200 169 158
548.436689 230.530930 1205.258942 176 136 123
594.229937 22.098812 1351.769924 206 175 160
602.377653 -18.173511 1373.855782 209 174 161
573.313332 225.825191 1293.859673 81 57 50
626.131248 -259.329987 1416.237926 44 29 32
608.851194 -39.228585 1376.563644 196 158 151
614.669466 -93.128973 1387.342453 170 133 134
628.199148 -255.817986 1414.516544 84 73 73
605.013561 17.782840 1362.696457 118 95 79
607.772112 9.262542 1370.092678 67 56 47
605.696201 28.359661 1362.246037 164 130 113
594.683170 152.709365 1338.520050 212 179 171
620.763588 -72.213483 1398.671436 209 172 159
633.193827 -258.664083 1416.977692 89 79 73
540.260601 246.684337 1133.612919 128 122 96
603.966379 114.831781 1352.208233 213 178 168
589.467096 220.440888 1313.345623 69 44 39
588.368988 225.139380 1309.910297 130 106 98
588.368988 225.139380 1309.910297 130 106 98
611.803532 17.559914 1364.270115 130 110 97
616.743803 -9.576710 1377.190399 59 42 34
603.297567 156.483507 1344.137859 125 91 112
644.112730 -254.065132 1432.110405 100 80 79
618.545961 12.554994 1374.005127 31 23 21
605.071020 168.609548 1346.129322 172 117 108
601.031256 200.218844 1334.037113 72 59 52
596.581221 229.264665 1318.551540 99 70 69
605.444384 189.599204 1342.961979 105 65 70
649.671221 -245.967197 1441.563034 187 154 142
648.784924 -254.225945 1436.242485 70 53 54
604.161215 204.934883 1333.694649 121 109 106
604.161215 204.934883 1333.694649 121 109 106
633.942032 -108.087122 1397.761440 215 179 166
610.373116 172.723794 1350.320625 254 240 236
610.373116 172.723794 1350.320625 254 240 236
651.783514 -252.472115 1437.971401 90 74 75
610.692549 186.371183 1348.875523 254 238 233
613.063192 179.868877 1351.483154 150 86 81
631.488180 -13.744327 1389.326096 138 112 117
657.497311 -255.471969 1441.772556 81 75 71
617.444849 175.013244 1355.399609 145 107 115
666.029787 -254.405689 1450.549603 98 84 82
618.178415 223.439169 1342.245293 76 52 47
674.522781 -253.276134 1459.588909 100 89 84
671.637344 -189.106464 1457.504177 209 175 163
694.514179 -283.418179 1521.049690 36 20 23
665.569830 -116.398609 1442.600632 210 178 163
663.998842 -109.906971 1435.871983 93 74 68
624.525547 232.137418 1344.057941 70 48 45
669.873047 -130.276191 1451.601696 213 182 168
624.597931 249.919939 1345.932674 75 54 44
697.327185 -347.102666 1515.219307 52 34 34
684.071875 -241.767621 1480.545139 209 177 161
625.829268 258.600068 1345.855427 96 67 60
-147.875047 89.529335 740.786266 194 153 139
-147.916496 60.442448 744.611454 196 155 132
-147.703946 45.962957 746.371031 194 153 127
-148.964882 -1.759025 753.504372 186 141 127
-147.588754 -3.447042 753.154707 206 171 153
-46.703348 -163.364697 699.170303 87 73 87
-49.778670 -235.398364 711.715126 148 123 127
-34.965909 172.963130 666.180611 105 86 92
-42.677319 86.535287 685.322428 133 108 100
-39.070120 -67.569548 697.819805 49 36 38
-37.278548 -69.120967 697.573996 115 102 105
-38.213915 -65.750754 699.195814 130 112 118
-42.437407 -223.220682 719.938326 149 131 142
-33.953348 -68.971300 700.574160 26 21 20
-38.016352 -44.114560 704.172182 73 48 53
-79.157889 -76.854289 769.055986 114 100 102
-26.367858 161.235273 676.159143 61 34 23
-42.896551 88.249981 707.184076 130 111 115
-25.230968 151.371598 679.414892 151 85 70
-22.038631 177.754331 678.113985 75 59 71
-35.185993 -53.410405 720.847702 139 117 121
-28.944927 -87.891579 716.644716 175 150 152
-28.944927 -87.891579 716.644716 175 150 152
-27.152908 -240.955877 737.011290 139 116 121
-21.983631 -65.094644 716.086864 46 33 35
-19.747889 -66.496277 715.540981 114 100 102
-20.855030 -207.239413 732.579947 200 169 160
-22.579850 -197.443557 736.639404 183 153 145
-18.630904 177.521181 703.081036 152 124 111
-89.088744 -122.318089 840.743446 40 28 27
-11.011014 -155.860436 744.063091 88 64 70
-11.267304 -249.291348 754.352760 169 134 125
-15.191528 175.797594 725.177908 113 88 72
-15.191528 175.797594 725.177908 113 88 72
-4.189491 -248.138380 761.600351 171 138 128
2.725598 -247.981286 769.250870 162 127 114
9.489027 -235.506988 774.480438 210 175 167
-99.985409 -317.844892 982.802391 125 106 114
-42.518914 136.400533 823.345757 135 108 99
21.548121 -232.674456 781.678009 114 85 89
23.485292 -217.560554 782.079458 61 46 54
24.651441 -201.781774 779.545212 24 21 22
28.392574 -235.756183 785.600615 143 120 129
28.162384 -189.254153 789.060974 69 50 64
-1.228212 157.054186 803.788185 162 133 123
-52.588302 40.101120 907.903004 62 36 28
-69.051927 34.321889 947.343159 55 29 19
-46.253264 40.563479 913.709354 228 155 136
-43.799031 34.110880 917.271233 55 29 19
41.128966 -244.918227 807.097912 80 59 65
41.128966 -244.918227 807.097912 80 59 65
45.520461 -246.683669 811.469364 139 124 132
53.470796 -229.521370 814.391041 102 83 99
53.433794 -252.310491 821.238804 120 97 111
56.633139 -256.973886 823.708057 53 38 45
56.633139 -256.973886 823.708057 53 38 45
58.942229 -215.087295 817.560005 49 33 42
61.377817 -209.783030 818.245792 115 100 124
62.266731 -224.370575 819.962311 111 88 103
62.744457 -211.588287 819.900513 70 52 67
61.649907 -252.808404 827.727985 34 28 29
61.649907 -252.808404 827.727985 34 28 29
61.714047 -260.988331 829.452419 55 36 40
64.629018 -246.588731 828.570843 130 110 126
66.214812 -256.238461 831.241894 114 95 108
66.747171 -249.867988 829.767036 39 31 31
69.662064 -248.200297 836.031914 43 27 30
69.662064 -248.200297 836.031914 43 27 30
70.724398 -218.927765 831.896687 83 65 69
69.528627 -242.409730 838.743687 135 116 133
71.431875 -228.219604 833.755112 67 49 58
80.563104 -237.759113 845.111561 59 42 48
80.866933 -237.598825 844.703388 59 42 48
82.482630 -203.713346 841.874504 44 32 39
82.940763 -182.012641 843.995285 93 79 97
84.780043 -232.542753 851.305962 126 102 109
85.778695 -180.109203 845.746708 169 149 152
90.056533 -192.746878 845.702934 139 124 141
105.307543 -226.683569 873.016548 171 138 127
105.898309 -156.800032 864.597130 84 59 67
112.559354 -178.337526 865.213871 131 109 120
117.095184 -191.161489 868.302345 203 169 162
119.638586 197.752512 837.133980 140 113 102
117.230582 193.979692 847.575665 65 45 41
125.821531 -271.689892 901.099873 174 133 128
125.821531 -271.689892 901.099873 174 133 128
127.764571 -271.119714 902.675915 175 134 133
112.861359 -0.496368 907.475567 115 93 88
130.290592 -270.777559 904.703808 180 136 130
131.659675 -88.557899 882.705021 127 105 116
133.834934 -270.062757 908.886528 169 130 126
135.509956 -157.646430 891.375923 194 164 159
136.253154 -269.720221 910.566902 169 131 124
135.243642 -61.739963 883.123589 88 62 70
138.576436 -269.657731 913.606834 175 137 132
141.540802 -126.565552 889.111233 105 87 90
137.465954 201.755428 847.396183 65 44 42
139.344609 -20.034255 879.916859 41 27 34
142.200315 -268.962526 917.095757 178 141 138
141.695547 76.679230 872.692871 132 110 117
143.812382 35.918042 878.964901 149 126 130
145.667624 204.786921 848.822784 62 45 49
145.774984 204.703832 848.656940 62 45 49
146.532905 185.771465 852.419567 153 134 130
148.172772 -67.489982 891.921234 52 37 44
150.972033 -129.879510 907.735348 211 178 167
150.571024 203.312755 856.612968 62 44 40
155.468464 -65.189558 894.233227 113 98 95
155.468464 -65.189558 894.233227 113 98 95
156.799245 163.275254 866.749763 113 90 93
163.870645 26.133564 901.034260 182 150 142
166.687346 -46.534240 912.249279 29 24 25
166.687346 -46.534240 912.249279 29 24 25
170.017910 -93.578833 922.241783 176 139 133
175.413239 -48.968387 921.410465 197 164 155
179.623091 -186.318541 943.095779 166 130 125
181.982684 164.905119 892.410278 108 89 85
186.103451 114.132786 913.965797 82 50 35
189.185381 108.026230 917.582703 165 119 115
198.228848 140.544319 919.992924 115 103 102
211.635184 -248.020220 984.298706 163 144 147
208.214283 150.386667 924.172401 140 116 103
212.787271 -82.691711 975.142574 201 170 162
210.252833 135.825050 937.174320 201 169 156
219.861817 -16.187283 961.993122 163 128 125
228.812909 52.907187 964.984417 178 142 131
232.332182 147.110856 933.813763 54 32 25
237.481475 135.783076 918.540668 97 69 60
238.706112 -131.865573 1000.697613 193 162 152
231.606793 94.012654 976.009178 193 161 151
235.734987 146.077383 947.759914 64 56 51
244.179654 -73.487884 987.401867 101 79 75
241.498423 -23.746210 989.656353 179 142 128
241.805005 -23.649420 988.908291 179 142 128
244.494677 -30.713385 992.422104 62 47 41
248.052502 -66.956449 992.584991 36 26 27
245.026779 198.456216 955.172443 58 43 46
254.192185 -205.489898 1024.182320 166 127 122
245.079422 21.660681 1008.288860 117 92 87
254.424119 -143.471158 1013.224220 67 48 42
248.237896 62.534815 987.172508 199 165 159
254.752851 -162.118089 1020.345879 117 80 65
257.051253 -188.398755 1024.840641 178 137 126
248.934054 124.608481 978.986263 193 165 163
255.170536 -64.872277 1002.641201 125 104 111
251.905727 88.369936 989.047718 160 130 126
252.415633 88.399035 987.762928 160 130 126
251.997590 127.801585 979.974747 101 82 100
254.215431 137.619436 982.736301 151 129 136
260.926485 -74.155641 1018.321514 70 53 70
259.450912 37.702325 1003.026009 52 38 36
260.284185 62.680793 1002.703857 120 99 117
260.257339 119.015050 990.314865 143 122 131
263.760543 18.843172 1001.159382 72 53 47
265.507746 -67.904472 1019.367981 78 54 67
266.975045 -100.552142 1025.208282 86 61 79
266.248775 -89.619136 1027.349758 171 149 153
265.356874 -43.959105 1019.188690 120 100 107
263.715816 38.256678 1004.306602 132 110 115
264.002657 22.255647 1009.539413 156 133 132
266.267323 -39.346322 1026.667023 121 99 113
268.453526 -44.266161 1025.469398 62 44 57
273.938537 -142.071211 1036.717129 135 109 122
267.421222 117.254305 998.517323 165 145 143
278.550863 -176.145566 1042.049503 155 127 127
274.015641 -47.422215 1037.768364 39 32 41
281.216407 -181.681478 1044.847679 77 56 58
284.522390 197.201443 904.836464 71 47 42
285.903382 -225.540280 1061.101532 214 179 171
286.623955 -224.841905 1058.900642 214 179 171
289.369106 -166.997600 1055.844402 52 36 43
288.109255 193.563294 935.897636 156 120 108
292.250276 -184.981823 1060.846519 105 76 92
294.762468 -173.390245 1062.482643 135 110 127
301.108837 -195.860744 1071.081448 98 68 80
302.638721 -193.211710 1072.416210 140 113 118
304.471183 -214.517832 1070.078373 77 57 52
306.666279 -267.897034 1088.146400 224 185 177
307.562304 208.244610 891.350651 101 72 66
287.366557 -58.276606 1196.323872 111 81 84
310.567188 -205.347204 1082.068825 86 58 68
291.640759 -46.960285 1181.112194 52 38 40
312.058020 -202.231097 1083.568192 133 107 116
299.822927 -136.170042 1178.973198 73 56 64
294.901919 -47.691810 1184.479237 103 81 80
313.546300 -194.467866 1090.181351 140 116 120
314.156008 -189.583123 1090.414143 156 135 143
317.534375 -226.121879 1085.758209 68 49 48
297.647834 -46.101975 1187.192822 47 32 35
317.455769 -204.333282 1092.399120 104 74 79
321.476483 -271.022153 1102.574348 168 129 117
304.003835 -98.449850 1196.750736 105 70 69
320.655131 -199.392033 1094.398212 160 136 139
303.079629 -44.985965 1192.911911 47 33 35
321.491838 -200.259256 1093.946266 146 116 124
315.504956 193.947017 964.875126 103 70 61
324.746275 -231.013608 1093.602943 64 45 41
322.600508 -195.580828 1097.751427 152 130 133
343.266320 -125.852060 1136.808300 37 28 32
309.000587 45.935693 1186.181068 91 43 38
329.561615 -208.683777 1105.990410 131 106 116
330.577183 -205.331254 1114.518833 66 48 58
325.775719 204.768586 946.525002 105 74 65
322.870278 195.614815 1002.198982 101 72 68
336.368918 -237.671614 1112.248802 65 57 59
339.565063 -214.439249 1116.489697 134 108 124
342.912722 -243.601513 1111.754417 143 118 126
342.660260 -225.720716 1118.841267 86 57 64
327.612567 -91.341060 1225.847435 45 31 29
326.180363 -43.249702 1216.896915 114 91 94
327.800226 -81.840557 1224.015427 42 27 30
342.977095 -213.366246 1123.962498 101 76 87
342.977095 -213.366246 1123.962498 101 76 87
336.101437 199.569094 987.720490 97 69 59
349.995232 -251.975536 1128.478241 120 88 72
352.356482 -303.210282 1142.773056 114 82 69
333.609200 -36.956000 1226.626873 116 89 94
355.886459 -280.203581 1140.946484 52 32 27
339.160538 -43.587783 1226.576424 73 49 56
357.627225 -299.432158 1146.311665 198 170 158
356.227565 -257.113671 1136.967850 175 143 130
356.361556 -208.469868 1147.949123 125 101 118
344.093943 -41.869742 1231.494236 65 43 47
360.847569 -257.979012 1141.658592 146 121 114
362.114859 -265.826774 1142.107201 126 95 84
364.310503 -299.729300 1150.644779 130 99 99
352.651119 -133.878124 1230.279827 46 36 39
352.337837 209.494519 971.620178 111 74 69
352.337837 209.494519 971.620178 111 74 69
352.481031 213.921094 970.885754 95 64 61
366.533041 -228.349090 1144.629002 134 103 108
368.372154 -247.512245 1139.051342 170 142 131
373.253989 -256.592441 1150.126839 193 164 155
363.735938 217.801738 954.064178 102 74 65
382.366943 -270.010448 1160.255051 139 110 97
379.916191 -214.749312 1166.671944 37 31 34
366.684413 208.552456 987.020493 119 84 72
375.127482 -143.908346 1224.504471 141 112 108
386.039782 -315.938020 1170.913696 147 115 98
386.163568 -294.639349 1165.428448 182 158 141
379.781890 -94.972771 1173.063469 49 37 39
373.471332 -10.369580 1263.152504 110 84 84
387.124181 -217.383695 1173.467445 107 80 95
386.557961 -179.056203 1203.386497 28 22 23
375.127697 210.779834 995.390224 93 65 57
375.518274 210.470223 993.798828 93 65 57
395.291901 -270.320201 1176.141930 165 140 131
395.291901 -270.320201 1176.141930 165 140 131
391.503739 -189.411235 1192.629528 111 87 91
398.041916 -252.970910 1176.187801 160 130 124
397.390866 -217.673516 1174.691296 121 92 101
398.702717 -229.194856 1175.484562 160 131 128
402.729082 -308.538485 1198.165321 216 185 174
401.648760 -217.705226 1181.400871 49 36 38
406.110048 -248.439574 1183.610535 91 61 54
409.867764 -275.333285 1194.159603 189 162 149
409.761763 -250.029516 1189.169407 180 153 148
409.761763 -250.029516 1189.169407 180 153 148
390.895486 133.039665 1239.710522 108 81 91
411.882257 -270.977378 1201.353836 101 79 74
412.631893 -277.047992 1202.478981 101 69 62
410.351992 -219.213223 1187.092018 132 108 120
412.973690 -237.904549 1186.448097 178 150 135
393.795514 205.372000 1075.588703 102 81 71
395.637798 213.482976 1013.270760 95 70 61
415.324688 -221.092272 1194.323254 75 51 61
417.212248 -240.917635 1193.269539 116 85 72
420.260096 -208.122635 1196.196842 118 94 102
404.406834 147.384858 1239.197922 48 35 43
412.806416 -18.385865 1243.920708 44 31 33
404.888535 149.701798 1233.348846 86 69 77
425.203753 -226.548457 1201.137161 36 26 27
427.946043 -230.244970 1201.805782 149 123 107
427.240658 -214.484072 1206.133652 74 48 56
423.367643 -123.726189 1246.890926 84 63 68
420.227718 -10.475462 1250.192165 109 81 86
432.263327 -249.242759 1205.557537 58 37 36
417.414856 137.498224 1239.406681 150 120 109
434.909439 -199.145091 1214.704418 43 30 32
419.176579 153.794909 1227.694607 96 73 86
424.648714 51.382452 1251.819515 65 42 52
438.551712 -234.174562 1208.534622 141 118 121
437.340879 -203.928185 1217.786312 128 101 105
443.399477 -310.446024 1225.891685 203 172 163
437.717295 -26.825953 1447.955990 32 23 29
429.166698 142.565393 1240.215206 96 75 76
429.727650 149.961233 1234.333324 78 65 77
448.437405 -227.084231 1219.474602 101 78 65
447.453928 -132.371902 1245.703220 130 97 91
442.917061 12.309586 1255.218410 153 123 111
460.043716 -164.286566 1240.360546 117 89 93
450.252676 147.073913 1238.105774 33 21 24
450.252676 147.073913 1238.105774 33 21 24
459.713745 4.638000 1257.696819 47 34 35
468.261433 -183.748424 1243.456173 122 94 104
451.498461 190.699589 1225.789928 70 45 60
472.269678 -115.683281 1256.706333 137 114 114
472.269678 -115.683281 1256.706333 137 114 114
446.775818 228.285050 1036.735249 105 76 71
467.335939 12.032302 1255.946445 162 127 114
449.990416 221.390772 1073.207855 115 82 72
449.990416 221.390772 1073.207855 115 82 72
475.269127 -137.614441 1252.584553 102 77 81
467.121744 127.744186 1240.657997 154 122 108
479.167986 -90.554667 1260.420322 141 118 117
479.167986 -90.554667 1260.420322 141 118 117
481.977797 -132.259703 1254.015350 113 89 95
467.092419 178.413105 1220.467281 111 94 97
478.024387 -6.877284 1256.082630 55 41 43
455.828619 229.121447 1047.685814 106 77 69
479.497957 -18.230483 1252.046680 29 19 24
473.628521 110.642207 1245.419121 63 41 41
473.163843 130.191517 1243.659019 63 40 42
473.056650 137.424493 1242.726994 57 31 30
490.111113 -130.063653 1262.385178 76 51 59
485.773373 -11.957705 1257.429504 128 100 102
485.938168 -1.768571 1256.525803 136 116 119
485.198927 14.170341 1254.121113 109 86 96
485.365582 36.096349 1251.187325 110 84 97
488.055420 -24.018483 1243.970585 108 85 90
488.055420 -24.018483 1243.970585 108 85 90
492.908812 -101.013124 1261.447239 122 95 100
484.917688 62.236136 1247.208405 130 107 108
484.917688 62.236136 1247.208405 130 107 108
495.051575 -93.679219 1265.253830 35 23 27
496.360731 -85.057199 1263.191414 119 93 98
482.104540 192.728174 1218.262005 66 45 52
498.250532 -77.124566 1267.112255 37 23 27
498.250532 -77.124566 1267.112255 37 23 27
498.250532 -77.124566 1267.112255 37 23 27
497.938490 -16.731995 1259.565830 37 24 26
492.196417 154.041266 1235.465145 34 22 22
