ply
            format ascii 1.0
            element vertex 6959
            property float x
            property float y
            property float z
            property uchar blue
            property uchar green
            property uchar red
            end_header
468.096447 250.726771 1469.371033 44 24 16
312.452984 -6.439817 2648.883438 57 36 28
307.404089 84.048158 2599.520302 114 89 92
315.908360 32.793102 2613.943481 154 120 101
260.603833 509.093475 2510.485458 201 158 131
320.035005 1.509360 2657.514572 173 128 115
347.871089 -176.910412 2695.171356 203 158 139
286.527085 349.055409 2556.550217 139 96 88
363.410664 -284.803843 2705.382729 171 138 129
347.548985 -159.840035 2690.914154 144 104 97
313.009119 170.840430 2586.032867 185 141 125
505.380964 253.719354 1252.955532 108 73 55
274.446797 497.196579 2520.411301 15 11 6
274.446797 497.196579 2520.411301 15 11 6
312.164688 224.650550 2575.119781 96 58 50
317.331219 197.559178 2583.108330 97 62 49
327.765059 177.423489 2594.373322 101 65 53
330.523849 218.326378 2587.548637 141 95 82
300.068307 479.347277 2540.880585 51 24 29
356.875658 56.812626 2635.636330 136 97 89
343.717527 190.237987 2600.359344 134 89 81
340.947247 229.540920 2594.047928 166 128 115
342.458701 229.236913 2590.372849 166 128 115
365.641856 75.121236 2635.084152 137 94 85
389.407277 -90.498573 2681.332016 149 101 95
380.173492 26.075074 2652.931213 45 30 44
375.735760 68.318236 2645.499802 194 148 131
317.482924 512.976837 2544.886589 65 19 25
319.100332 505.925798 2546.070480 118 66 47
384.142494 33.424881 2655.611420 174 133 115
382.257271 54.871398 2650.542068 140 96 90
325.597143 480.863523 2553.840446 67 31 35
389.315319 9.108339 2661.947441 146 99 89
381.802058 74.225783 2647.031593 131 90 82
361.356664 252.666926 2602.680397 55 39 55
373.487473 239.127827 2607.982826 55 44 63
384.902740 225.101995 2619.186401 172 130 109
462.682104 -348.846006 2780.472374 181 138 124
387.370801 300.446963 2605.153847 186 141 122
396.561289 246.481824 2620.360374 106 73 66
396.561289 246.481824 2620.360374 106 73 66
416.874790 123.557937 2657.013130 192 150 130
399.348545 253.245401 2619.987106 184 141 120
463.574696 -193.770158 2749.623680 185 143 124
463.574696 -193.770158 2749.623680 185 143 124
392.832303 335.187316 2599.506187 99 67 61
405.873346 254.011726 2624.737930 185 142 120
432.042599 87.627298 2675.032425 130 100 101
390.525270 425.199080 2582.148361 93 64 59
443.708324 123.366475 2675.599480 71 81 98
443.708324 123.366475 2675.599480 71 81 98
399.595785 484.115648 3223.396301 87 59 51
-1052.389431 18.629502 1760.096169 168 131 114
-1053.823853 11.762962 1762.727356 166 132 110
-1188.841724 -876.676083 1874.777794 103 69 57
-1181.995201 -806.748581 1868.699646 120 83 62
-1178.497505 -861.981583 1882.644463 121 120 128
-1006.193638 411.846161 1730.924988 118 80 61
-1055.581474 88.510478 1772.847366 149 111 99
-1170.527458 -840.570068 1881.436539 71 59 72
-1170.684719 -852.163696 1882.375908 75 65 77
-1170.343304 -846.166229 1883.795166 124 121 126
-1181.062984 -917.131996 1893.411636 118 75 64
-1011.775684 264.153838 1749.863625 102 71 64
-1046.522808 14.612441 1786.270905 153 113 103
-1037.508297 6.625095 1792.984390 97 61 49
-1147.375011 -844.104958 1899.414825 72 69 84
-1149.551010 -886.132622 1904.683876 59 54 68
-1149.551010 -886.132622 1904.683876 59 54 68
-1013.575363 137.873030 1779.412079 177 135 118
-1042.765141 -65.856457 1805.570984 161 119 108
-1010.268211 229.071212 1773.099899 178 136 118
-1011.553288 85.886985 1785.396004 106 73 68
-1010.774612 175.552535 1781.093979 109 75 68
-1014.762592 80.533510 1792.349625 167 129 111
-1036.102676 -40.748107 1812.466049 175 132 117
-1009.559345 46.278292 1800.185966 93 65 56
-1009.559345 46.278292 1800.185966 93 65 56
-1134.072018 -893.073940 1919.261932 66 67 79
-1023.217964 -68.246448 1817.339706 114 78 60
-209.151316 39.837518 1499.639034 111 74 57
-1120.450783 -859.288692 1917.980957 55 46 63
-965.912247 404.866886 1764.199448 97 64 55
-1018.651962 -64.249331 1822.587013 129 128 133
-1110.972309 -813.436222 1915.238953 78 74 88
-1103.446388 -798.701191 1913.358116 122 84 81
-1100.058079 -797.280121 1912.301254 122 84 81
-1108.296490 -837.027931 1918.760109 84 68 83
-970.427895 225.574350 1787.361908 102 71 66
-1021.389103 -83.431065 1834.707451 143 113 111
-968.974781 136.239421 1804.704094 104 73 66
-1093.680286 -884.510612 1934.815979 75 72 84
-968.480873 131.454051 1810.874748 170 133 117
-969.214916 97.527766 1816.105652 184 141 122
-920.993328 472.902584 1769.966888 156 123 108
-964.222145 136.007488 1816.699982 110 75 68
-918.495369 480.880117 1777.815247 92 67 61
-1020.416737 -516.315126 1909.545898 127 84 69
-917.667770 365.316343 1798.779106 98 68 61
-1047.700310 -850.693130 1960.480690 142 110 97
-1043.988705 -819.812202 1958.146667 159 119 107
-946.458912 -64.363283 1862.895584 67 69 83
-921.032619 185.780716 1835.858345 109 78 67
-923.129845 89.922071 1846.823883 172 134 117
-922.640324 90.335488 1846.682549 172 134 117
-1029.555988 -865.006447 1971.341896 110 76 58
-923.054218 64.091033 1850.900841 171 133 119
-879.426098 413.185644 1805.229378 98 69 56
-931.793213 -33.206818 1865.134430 194 150 134
-1026.662922 -807.650089 1970.096016 88 69 76
-880.728722 375.194287 1810.573006 175 132 111
-1022.255325 -825.711155 1970.266342 96 71 65
-919.414330 95.911491 1852.304077 109 74 65
-918.811798 57.318097 1856.899071 102 72 59
-918.811798 57.318097 1856.899071 102 72 59
-1015.747929 -824.883747 1974.584198 68 61 71
-875.603962 410.317135 1813.601303 160 124 109
-879.471874 285.748196 1827.242851 183 140 121
-881.743336 241.975880 1837.749672 180 138 118
-870.470047 403.203487 1819.860268 45 35 55
-878.438187 236.097193 1840.324974 110 78 73
-1007.113171 -669.708014 1972.142410 125 91 82
-880.986881 189.816976 1850.034714 110 79 74
-880.986881 189.816976 1850.034714 110 79 74
-885.435390 145.774591 1856.537056 113 78 69
-885.124683 100.054026 1864.669800 114 75 70
-878.536987 183.022273 1856.993294 189 146 124
-878.536987 183.022273 1856.993294 189 146 124
-981.192112 -797.480917 1987.545204 77 70 87
-981.192112 -797.480917 1987.545204 77 70 87
-883.792019 38.960865 1874.987221 176 139 121
-873.490429 53.064686 1877.068138 137 99 84
-879.693604 41.501692 1881.926537 110 74 62
-830.371094 483.259010 1824.334526 164 129 113
-831.247711 427.483797 1834.490395 173 130 112
-826.730633 492.149925 1832.499313 96 68 64
-824.972343 432.128191 1838.546562 110 74 62
-823.095322 432.820320 1837.809372 110 74 62
-861.280823 260.662818 1876.096535 186 145 127
-822.289753 428.300762 1844.363022 169 129 117
-850.745392 77.044541 1889.783096 191 145 127
-871.743298 -74.468172 1913.080978 196 152 136
-804.346848 492.244482 1832.617760 93 68 63
-892.531109 -330.148911 1951.529503 149 105 90
-863.406086 165.655851 1895.852280 176 137 120
2653.081131 342.391038 327.565265 106 70 60
-837.297535 308.854389 1879.021072 100 61 56
-837.297535 308.854389 1879.021072 100 61 56
-858.392048 161.667645 1902.187729 90 59 40
4970.192337 -150.361919 -804.580784 84 52 38
-779.796696 323.084879 1857.405853 99 64 52
-792.973804 483.708382 1849.384499 65 44 41
-861.996269 132.473826 1916.187668 57 44 40
-827.956390 62.982869 1910.869980 140 96 74
-827.956390 62.982869 1910.869980 140 96 74
-832.536602 216.273832 1900.343513 191 151 130
-819.823265 333.013034 1886.866570 81 54 40
5757.110214 1864.752960 -1426.647949 178 138 124
5249.468994 1047.921467 -1099.651623 205 162 144
-820.560360 47.507510 1918.985748 131 83 71
-863.640976 -426.398516 1983.595848 173 132 117
-878.700256 -570.138788 2004.563904 196 154 137
-821.322918 235.173368 1906.265640 96 66 51
-824.241924 -65.314168 1938.928223 177 136 123
-823.498821 -85.968900 1940.635681 173 130 118
-876.928902 -580.714083 2012.658691 112 78 75
-806.869698 68.617505 1920.899391 114 74 62
-858.053207 -457.759619 1996.656418 183 140 126
-818.129158 158.668089 1920.477676 66 46 36
-796.853399 386.746359 1891.732597 116 57 38
5196.669006 942.823982 -1120.079136 182 134 125
-862.825680 -355.427599 2000.117302 107 65 50
-840.471935 -134.119189 1973.640823 102 62 40
-791.587162 67.576754 1930.604172 124 80 71
-787.540770 364.024806 1901.756096 223 152 133
687.005854 170.404541 1288.047218 103 68 55
-847.721004 -537.989044 2022.287178 158 112 92
-736.537695 498.887539 1869.617271 105 77 70
-840.241241 -349.301124 2004.580307 116 71 58
-844.209671 -300.009584 2002.059746 198 155 141
-820.913696 -139.584482 1975.698090 86 56 49
-842.780972 -257.175636 1997.903824 83 44 29
-830.301094 -505.845785 2017.028236 190 147 131
-775.142384 392.539334 1904.152679 202 157 134
-780.179358 72.194320 1938.397980 127 82 68
-796.041155 -85.816389 1962.914276 182 136 119
-833.810234 -498.130465 2022.435760 111 73 60
-738.580847 494.574165 1879.106522 167 131 116
-774.708080 358.983541 1910.485268 164 132 112
-839.414215 -341.001344 2013.021851 92 49 27
1765.709877 138.058436 645.268393 83 51 44
-738.397264 437.609196 1889.709663 172 129 117
-826.153088 -278.369594 2004.516220 66 39 36
-426.052999 297.156620 1747.733116 92 57 40
-383.425522 290.849018 1726.525116 99 64 52
6097.411346 2377.654266 -1821.153259 194 155 140
-779.542589 -73.809886 1967.471313 143 102 90
-767.659140 63.259161 1948.160362 137 96 80
-867.018223 -782.633734 2082.878304 178 128 116
6607.598877 3052.452278 -2180.559731 137 87 69
5503.583908 1402.244473 -1425.353622 160 119 106
-808.294964 -484.846830 2029.165077 168 132 120
-727.298117 438.515043 1898.278046 169 127 112
-761.038160 71.669072 1951.870346 150 103 88
5147.474670 532.042122 -1159.253597 119 79 67
-770.839024 -55.779672 1972.377396 140 97 81
-770.839024 -55.779672 1972.377396 140 97 81
-752.285051 146.458852 1943.270874 131 104 96
-810.866165 -297.496724 2019.137764 220 171 149
-844.226265 -614.139271 2069.902420 154 103 76
-764.194298 -58.842826 1973.880768 178 140 125
5503.733063 1406.296730 -1455.573559 168 123 109
-797.173786 -427.896786 2030.160904 198 152 134
-797.173786 -427.896786 2030.160904 198 152 134
-797.173786 -427.896786 2030.160904 198 152 134
-751.490688 42.788598 1965.291023 179 139 128
-757.585812 -58.244783 1979.806900 173 135 120
-789.503098 -472.666740 2042.000198 171 135 123
-783.411646 -418.108034 2034.583473 134 94 82
1801.013374 540.875483 563.754988 175 119 98
-743.838739 -61.100048 1982.643890 136 94 87
6106.169891 2238.800430 -1930.495071 176 125 110
6106.169891 2238.800430 -1930.495071 176 125 110
-712.275839 349.493837 1926.464653 182 139 123
-780.437422 -466.550922 2045.268059 182 140 127
-726.728153 317.489433 1938.482666 178 138 119
-822.325706 -772.087288 2099.824524 198 153 139
-826.490211 -760.167551 2101.662827 142 93 76
-775.787878 -455.442667 2046.284866 123 86 74
-712.748003 305.174136 1935.659790 183 140 123
-774.458790 -443.550348 2046.445084 127 89 73
-773.503733 -433.576727 2049.230385 197 153 137
-773.503733 -433.576727 2049.230385 197 153 137
6671.889496 3167.474556 -2383.785439 175 123 113
-686.099291 434.648895 1917.905426 97 67 60
1796.884346 540.228558 555.469894 175 117 101
-802.080250 -637.008142 2094.529533 147 96 71
-759.206867 -438.856459 2053.220367 97 72 77
-715.582275 73.180437 1978.087807 175 135 123
-707.602501 170.116735 1964.664841 193 149 130
-684.822130 397.909498 1928.815079 173 130 115
-707.206535 158.087277 1965.843391 191 147 132
-753.104448 -410.046482 2052.510262 172 138 127
-708.054733 124.692237 1973.686218 196 152 135
-721.659851 -105.177510 2005.302811 154 131 136
-749.264383 -414.216280 2056.580353 96 72 78
-748.500824 -383.414078 2054.425621 58 46 57
-753.717470 -453.395414 2064.866447 185 142 127
-792.106771 -786.435890 2123.298454 151 103 82
2535.542107 997.557068 71.667701 158 107 88
-2806.544685 356.015563 3138.815689 155 120 108
-738.949299 -466.942072 2075.099373 139 102 89
7409.852600 3320.421600 -2970.653534 150 98 80
-723.008871 -398.295164 2061.256599 94 70 82
-731.778193 -430.818033 2070.097923 137 92 79
-780.317640 -781.830549 2138.319016 148 94 72
-737.381315 -527.183819 2088.011169 166 121 98
6410.255432 2835.486794 -2374.448776 149 99 81
-758.850241 -748.490047 2129.562187 146 100 83
-646.207905 510.749865 1931.434059 97 68 64
6957.074738 3179.106331 -2748.210144 149 99 81
-717.006969 -579.657078 2098.893547 154 128 131
-714.480209 -578.380442 2097.835159 154 128 131
-705.291748 -321.160913 2066.101265 170 122 107
-640.913486 448.340797 1947.029305 178 135 119
-715.283680 -564.779663 2107.155418 179 139 130
-639.793491 391.453004 1960.138130 173 136 118
-634.733915 512.296677 1944.157028 97 70 64
-635.255003 453.548717 1951.643562 115 78 64
-637.411642 357.910371 1963.642883 178 136 121
-662.593126 51.892102 2013.323021 182 139 122
-632.005787 358.811045 1973.768997 182 141 124
-634.914351 306.800890 1983.024788 103 72 65
-645.927143 52.787912 2023.402786 115 71 54
-651.026773 -27.271837 2037.543488 71 77 93
-644.056702 -9.391765 2034.863281 153 143 141
-1461.014938 211.302447 2503.428459 155 120 108
-644.691706 -6.661507 2039.983368 75 70 83
-640.825987 -18.516979 2039.489365 124 130 131
-641.239357 -12.326895 2047.297096 152 145 147
-596.568680 444.976616 1972.245789 102 71 67
-590.571117 447.101021 1984.203911 99 69 64
-670.089340 -766.718674 2176.718330 96 72 71
-664.830589 -762.682772 2175.480461 83 68 76
-586.187077 319.659519 2008.870316 182 141 124
-595.114851 138.615203 2036.355972 189 146 129
-651.902771 -759.650707 2177.905464 73 74 90
-598.122740 -89.145863 2080.828857 132 98 87
-554.517698 521.028090 1985.031319 92 68 64
-613.972425 -295.433903 2124.137497 125 91 84
-632.318974 -752.306366 2190.444565 68 55 70
-631.856441 -758.123922 2194.424629 109 103 122
-549.760008 516.381836 1991.671371 163 127 117
-549.380779 402.559948 2013.821220 170 135 120
-545.276117 464.724350 2006.121254 109 74 62
-617.217684 -760.426235 2201.193619 75 74 92
-615.408945 -759.418249 2200.279236 75 74 92
-615.408945 -759.418249 2200.279236 75 74 92
-540.223646 523.229790 1996.969032 98 71 67
-544.490480 373.863935 2022.773933 107 71 62
-544.630814 284.162879 2040.880585 115 77 67
-544.522381 279.150295 2046.816254 181 139 122
-541.989374 279.153109 2045.610046 181 139 122
-546.186781 226.666594 2055.634308 103 73 70
-556.755304 -35.993943 2096.881866 190 146 132
-556.281424 -31.909683 2096.105003 182 139 128
-543.941879 220.488572 2061.294746 155 120 108
-520.993090 526.670122 2011.123466 98 71 66
-588.204527 -756.083298 2216.639900 80 73 87
-541.918993 8.116656 2103.152847 92 95 110
-557.660580 -500.149393 2187.673187 190 144 135
-508.752346 276.536059 2062.737274 107 73 72
-557.960415 -641.763258 2215.082169 168 132 130
1064.082718 168.832719 1166.868210 195 152 141
-499.374771 456.861782 2037.858391 90 64 58
-555.593443 -732.165003 2230.941200 178 137 126
-495.935583 419.126987 2045.005608 172 131 114
-552.883720 -746.205330 2237.923050 132 129 135
-536.572886 -636.584330 2222.298241 119 86 83
-496.795702 239.942122 2080.909920 177 138 123
-505.194855 14.245167 2116.853905 127 103 110
-476.083708 414.053774 2053.427124 96 66 63
-525.377893 -604.155970 2226.039505 195 152 141
-485.219955 195.592344 2093.099594 178 136 118
-471.573973 455.569553 2052.836227 165 125 110
-464.038086 531.363964 2038.700867 98 69 66
-482.073736 144.052052 2104.458618 107 77 71
-479.008484 77.581555 2119.778633 187 146 129
-454.017639 474.583817 2059.991264 107 70 62
-468.382978 106.215894 2120.265388 102 72 60
-477.344322 -79.166937 2155.989838 191 152 136
-453.284788 469.617271 2065.278435 157 123 109
433.303785 161.982906 1448.769474 168 132 122
-471.303082 -45.175499 2150.375557 146 105 95
-464.421272 143.657875 2121.110916 73 57 75
-462.558079 143.759298 2120.115280 73 57 75
-472.188759 -70.550847 2158.236313 70 47 56
-466.970730 -30.399242 2153.597450 192 150 133
-472.750807 -525.595760 2241.103935 196 152 137
-455.361462 306.286263 2114.195633 178 134 120
-448.363829 121.068192 2134.508133 181 138 121
-467.056036 -422.231627 2225.317192 178 138 124
-464.793205 -421.493006 2223.969078 178 138 124
-431.290483 352.791309 2097.975159 93 58 42
-458.793688 333.817077 2118.798447 93 58 42
-464.764833 -372.564125 2222.040367 108 85 93
-447.775078 -22.527558 2160.893822 198 154 137
-447.775078 -22.527558 2160.893822 198 154 137
-454.606771 312.999749 2119.839859 93 58 42
-451.965570 313.265824 2118.386269 93 58 42
-459.022999 -403.029966 2227.068710 114 79 65
-459.022999 -403.029966 2227.068710 114 79 65
-443.285942 -12.979728 2161.884880 201 155 137
-393.107986 30.874172 2120.241547 173 135 121
-440.925312 277.214694 2126.601219 90 65 50
-427.781153 105.786240 2147.128296 183 140 123
-410.730982 344.718981 2106.755829 95 62 49
-438.107395 180.978513 2147.795486 64 52 45
-443.885136 -411.380577 2235.613060 196 153 137
446.831894 297.473955 1441.190529 200 154 132
-432.214308 314.235616 2125.934219 90 63 54
-410.065365 349.642301 2110.568047 187 148 131
-457.965755 -343.264484 2244.843292 27 16 12
-419.159651 133.427727 2149.521637 135 95 82
-814.822292 268.448830 2442.527390 188 149 127
0.816384 498.476934 1766.995239 92 74 66
-751.819420 297.992659 2402.029419 73 40 27
-751.819420 297.992659 2402.029419 73 40 27
2136.301804 112.475240 140.946031 94 60 47
-819.480896 -433.677673 2551.741791 118 74 56
792.239523 164.487112 1360.081959 84 43 30
-431.043434 -394.993353 2240.887070 106 77 84
-810.461044 265.094805 2447.461891 85 49 35
-812.951088 -446.814632 2564.454269 156 110 92
-407.903099 108.542502 2160.164261 172 133 120
-424.454117 -398.952675 2246.979141 181 147 140
-408.816814 282.440424 2139.259911 68 48 40
443.970394 81.746840 1484.320068 96 62 54
-420.152950 -401.905680 2250.498199 130 84 72
-386.822200 357.512736 2119.620132 88 56 46
-417.843485 -414.356613 2252.476120 120 78 67
2163.762474 567.360973 28.571492 224 178 159
2729.270744 948.518181 -296.578908 160 104 87
-414.350080 -444.579983 2259.866905 121 77 67
-412.653065 -472.447157 2264.124680 204 160 143
-410.855198 -429.705667 2261.392021 154 126 128
-407.251692 -419.240856 2259.586525 142 99 90
2331.331062 616.897011 -129.801512 217 175 157
-400.925207 264.761806 2159.108543 205 162 144
-401.215219 -396.332288 2260.143852 130 89 76
-400.564051 -376.451421 2257.804871 126 89 76
-368.924594 479.620552 2110.472298 165 127 114
2269.320297 77.423650 -3.492728 54 20 23
2323.700714 611.557245 -138.792396 156 110 98
-389.024186 338.223290 2151.711845 50 23 12
-389.216208 -384.132457 2265.675545 206 163 144
-389.216208 -384.132457 2265.675545 206 163 144
2324.612045 621.018362 -150.043499 230 179 159
-391.074324 286.644435 2169.589996 59 37 27
2379.890633 930.638313 -249.845171 177 118 98
-359.028983 480.324411 2118.311310 165 126 114
-377.482104 339.482832 2158.723450 52 20 15
2379.471779 515.300417 -188.522494 58 34 28
432.804298 -71.780270 1535.123062 126 82 68
-366.400886 138.553870 2180.461311 123 80 68
-366.400886 138.553870 2180.461311 123 80 68
2369.906616 533.663225 -181.815124 58 34 28
-375.684667 362.014747 2156.861687 71 42 40
-398.037744 -561.435413 2316.118050 237 185 168
-377.683759 -480.086708 2288.067436 176 125 110
-377.683759 -480.086708 2288.067436 176 125 110
2510.010910 -35.734779 -218.249726 196 151 127
511.273384 234.538484 1429.520798 99 64 54
511.273384 234.538484 1429.520798 99 64 54
-402.320910 -303.017998 2284.745789 118 74 56
-361.647272 104.790461 2188.800240 117 74 66
2425.255203 547.020006 -242.224002 51 33 25
2425.445175 546.604633 -242.390633 51 33 25
2312.681580 557.689571 -150.337982 65 39 32
-370.080590 262.831140 2177.847481 188 149 127
2316.386032 619.356441 -167.604506 218 176 159
-366.619444 -373.020625 2276.730728 155 108 95
-353.537536 90.276515 2195.770645 137 105 93
-397.927451 -313.983917 2295.685387 156 110 92
-357.996297 -446.632814 2293.696594 125 86 77
684.483480 183.235431 1351.880264 96 62 54
2314.373970 622.641706 -186.297035 181 128 119
-355.491233 -456.849718 2296.947479 166 117 106
2318.042374 671.546030 -200.597310 202 153 134
-349.879026 -383.011627 2286.954498 107 79 84
446.990156 -39.831659 1537.442112 109 79 78
2264.486885 234.494281 -95.113063 66 58 72
2304.348755 605.760145 -192.668390 147 98 76
-331.015062 -364.593506 2293.632507 105 98 106
-332.474518 -338.385725 2291.364861 67 53 65
-317.908597 -380.751371 2305.028915 127 81 71
-313.088441 -478.994942 2324.665070 161 117 101
-310.303187 -401.614237 2314.222908 129 89 78
-306.732202 -525.984287 2336.367798 60 43 56
454.353619 -96.370757 1564.270306 153 107 96
-88.021350 104.743147 2074.841118 99 114 119
-57.807195 458.895540 2012.224388 106 112 118
-247.983575 -327.897620 2336.645889 101 110 113
-243.662739 -296.706152 2330.161285 121 138 147
-243.508244 -231.798434 2322.434425 61 61 65
-243.508244 -231.798434 2322.434425 61 61 65
-242.364979 -231.933069 2322.922897 55 48 54
-241.281104 -286.090708 2331.673813 46 36 37
-65.226215 -67.704237 2123.661804 143 112 102
-216.563344 -352.988148 2336.872292 67 59 69
-223.288703 -138.096511 2311.293602 142 114 116
-220.079017 269.264460 2240.662193 104 79 71
-219.557858 -293.600488 2343.002892 115 117 120
-218.295527 -142.561603 2316.363525 108 77 78
-219.506049 -301.941013 2349.168205 88 62 62
-219.896173 -142.235792 2329.203415 155 130 141
-214.326286 -369.115472 2365.394783 128 135 144
-207.641888 -443.536663 2380.711365 147 111 127
-203.901386 -442.363501 2377.682877 147 111 127
-195.735455 -444.487715 2383.445358 69 44 55
-193.008554 -518.297052 2396.609497 148 113 125
-195.337915 -400.198507 2379.379845 81 50 47
-191.087425 -428.937006 2381.168175 143 162 174
-191.087425 -428.937006 2381.168175 143 162 174
-339.449573 -180.344665 2492.233086 145 124 136
-186.449170 -508.320761 2398.097420 42 26 43
-183.253884 -274.803090 2353.072739 86 96 108
-186.524510 -436.550951 2386.809921 59 60 74
-181.014097 -495.570135 2392.703056 58 31 44
-187.580812 357.362676 2243.492699 64 46 45
-186.150503 266.632485 2259.997559 49 36 36
-184.829891 499.583435 2218.172646 140 104 92
-187.669706 -384.522104 2388.127708 166 126 114
-183.367574 409.795094 2235.811043 134 101 89
-183.361912 319.647288 2252.709389 123 93 88
-179.326904 -443.148327 2391.496658 79 62 70
-182.615423 353.284550 2247.907448 123 96 89
-182.609189 262.346601 2265.567398 105 80 77
-184.091496 -369.796157 2385.357475 67 64 71
-205.794168 -60.056514 2351.983070 142 119 108
-174.396014 -289.021564 2361.033440 62 71 77
2010.090446 388.720202 -83.727509 129 129 132
-100.263834 -76.233262 2243.050575 137 110 100
-100.263834 -76.233262 2243.050575 137 110 100
-171.055067 -489.165258 2397.110558 205 166 149
-177.798438 236.723948 2273.990440 51 34 34
-164.442551 -432.812500 2388.333511 237 187 172
-166.627204 -461.585140 2397.914314 205 164 147
-173.912871 230.033183 2277.947998 95 75 71
-163.164568 -493.570614 2404.815865 39 26 24
-163.252163 -296.296310 2368.942070 136 140 139
-161.904407 -475.227499 2402.480316 217 176 158
-160.439694 -449.941254 2398.174095 118 103 105
-164.222538 -366.353154 2387.133408 113 117 125
-157.814085 -506.426477 2410.807610 201 163 149
-156.948495 -505.997038 2410.099602 201 163 149
-161.343825 -375.031686 2394.720078 185 154 144
-157.768226 -415.405607 2405.776215 151 164 167
-144.149625 -133.094859 2338.925743 145 124 136
-73.856056 -20.543988 2241.708183 183 146 132
-153.703439 -378.272533 2398.527718 131 136 141
-140.375972 -486.695099 2406.639099 204 164 152
-153.976870 -455.905151 2419.086075 97 63 54
-153.976870 -455.905151 2419.086075 97 63 54
-150.736749 -418.494463 2410.042763 49 44 55
-70.926625 -34.783483 2249.041939 142 119 108
-142.351377 -501.320601 2419.079399 152 108 119
-151.172054 -395.141578 2409.959412 169 129 115
-148.848212 -391.299152 2410.397530 168 159 159
-134.288716 -481.435013 2415.047646 79 55 51
-134.288716 -481.435013 2415.047646 79 55 51
-145.655084 -376.652527 2409.321594 54 54 59
-123.492301 -325.065660 2375.785255 40 40 64
-145.347011 -415.341425 2421.372986 180 139 123
-140.208972 -421.281004 2421.264648 110 66 54
-124.076712 -489.040804 2420.821190 178 133 147
-134.317589 -458.257341 2427.395058 155 123 112
-132.859910 -286.110854 2396.320915 123 125 129
-130.870688 -256.085610 2396.500969 83 72 79
-123.129249 -363.245082 2418.407822 112 117 132
-121.210718 -356.818891 2415.575218 134 149 162
-121.210718 -356.818891 2415.575218 134 149 162
-118.570685 -370.835686 2419.275284 54 55 67
-128.304482 -196.097350 2400.979996 100 78 92
-111.605084 -343.558335 2411.848450 57 47 49
-110.840082 -399.628544 2424.219513 143 157 161
-112.212229 -393.549204 2426.109314 44 43 50
-130.344820 -204.945660 2411.477852 201 155 144
-110.942364 -377.981544 2425.423241 69 61 63
-110.942364 -377.981544 2425.423241 69 61 63
-103.422976 -469.291449 2438.210297 123 127 132
-104.285824 -400.309467 2433.431816 85 94 109
-122.735918 -166.873956 2409.489250 168 121 114
-120.442235 -243.174839 2429.616165 51 28 26
-116.062570 -218.023181 2423.173141 208 170 153
-98.606497 -384.483624 2437.540054 195 150 135
-113.969386 -246.153569 2431.349754 177 136 125
-109.643877 -172.561824 2414.528847 226 175 161
-104.087949 -201.446152 2421.587372 148 111 102
-96.664089 -289.620948 2431.399918 106 92 109
-109.406579 -252.201581 2439.324570 92 54 41
-103.873014 -244.630742 2435.424042 205 165 146
-81.061482 -470.217752 2456.250572 57 54 76
-77.971411 -492.199850 2458.010292 63 60 74
-80.130112 -411.872005 2447.399330 124 137 142
-80.130112 -411.872005 2447.399330 124 137 142
92.130256 32.288802 2147.718620 45 44 66
-82.237083 -308.685660 2431.284904 43 35 51
-94.857275 -175.842190 2422.987747 231 179 163
-78.998530 -365.956259 2444.938850 144 163 172
-92.780250 -233.734679 2441.621399 120 77 60
-92.182940 -233.210158 2441.150665 120 77 60
-73.721939 -374.311328 2450.967789 108 112 119
-66.482526 -438.371563 2456.623268 154 136 142
-93.024814 -144.633842 2427.605820 194 152 138
-66.142297 -451.125336 2461.224365 66 59 62
-67.552286 -370.699573 2450.037766 146 155 161
-57.019269 -488.453865 2463.068962 52 51 64
-65.368307 -464.087343 2472.287369 30 24 25
-83.784521 -148.137486 2429.534912 204 165 152
22.297458 193.862355 2236.388588 30 25 25
-75.667161 -259.938717 2457.360840 188 147 132
-70.698631 -203.853607 2440.321732 215 172 155
-55.903077 -428.942776 2471.916008 128 137 142
-52.606916 -403.813076 2465.161133 53 49 61
-55.298036 -355.979443 2458.275986 75 59 59
-37.448230 -512.679291 2470.225906 121 83 107
-73.050582 -174.017179 2442.063332 173 126 113
-52.364939 -412.703371 2469.889450 103 111 120
-51.228213 -367.379642 2460.696220 71 75 78
-39.457974 -485.472345 2477.378082 90 71 81
-49.955031 -361.963296 2464.199448 177 141 127
-41.353461 -328.044057 2448.676491 47 43 46
-62.749416 -192.578220 2446.209526 203 161 141
-38.955772 -480.150843 2482.294846 32 26 37
-38.955772 -480.150843 2482.294846 32 26 37
-49.143195 -290.043616 2461.214828 49 45 66
-30.953634 -484.110069 2481.077957 106 81 96
-56.521636 -178.493321 2450.354385 231 181 164
-53.441596 -186.377084 2448.249626 164 117 108
-61.235464 -166.467130 2454.548454 184 136 123
-34.205365 -432.157516 2483.919144 77 73 93
-33.118460 -440.184784 2486.440849 57 54 72
-27.850559 -410.626221 2473.844719 129 144 150
-47.965965 -240.695691 2466.280174 122 78 63
-18.466689 -510.817003 2497.929382 83 55 77
-16.838261 -498.312521 2499.553490 119 84 91
-23.600686 -460.882711 2501.800728 40 32 36
-12.157349 -467.885256 2489.806747 46 39 41
-36.009043 -263.457751 2482.521820 119 76 59
-13.299564 -369.041848 2478.009796 41 42 53
-13.615245 -324.240518 2470.764732 35 33 47
-32.146630 -269.514608 2483.898735 174 132 121
1936.760902 732.585382 -269.725442 201 158 137
-9.117369 -410.556698 2488.814735 85 54 41
-5.099839 -427.978706 2489.574623 86 62 65
-25.198829 -273.707867 2483.085632 74 44 45
-33.315906 -142.513621 2464.810562 212 172 155
-28.673142 -228.046823 2478.889656 206 162 146
-5.563184 -359.063196 2485.078812 78 87 92
-7.482156 -374.382138 2492.215538 155 128 124
0.913030 -338.158894 2473.944283 68 58 72
-5.693873 -305.492926 2476.058006 120 100 99
-23.228559 -135.399485 2464.170265 203 163 144
-20.635930 -157.810402 2469.479752 97 58 47
2.821189 -344.151759 2482.696915 95 111 122
1.652834 -349.147081 2489.474487 49 48 57
6.594539 -350.448608 2492.481422 121 123 125
193.550026 519.554043 2035.947037 92 69 68
193.550026 519.554043 2035.947037 92 69 68
-7.754976 -234.981513 2491.898537 202 161 141
-7.754976 -234.981513 2491.898537 202 161 141
14.740615 -341.420937 2490.960693 46 43 53
-2.901317 -203.995919 2484.152985 116 74 58
16.492267 -404.063749 2506.765175 76 51 54
-5.310287 -130.743766 2475.268364 69 29 29
27.042744 -475.971842 2513.677216 86 49 67
18.332250 -383.079123 2505.096817 137 137 136
24.665502 -461.291409 2517.463493 108 86 91
19.542237 -367.454314 2502.599144 184 143 130
27.102509 -436.448336 2508.655930 123 134 139
26.231843 -325.672293 2487.516212 79 69 81
20.972989 -343.289328 2500.195694 118 123 123
26.308182 -344.319367 2502.184868 135 155 160
7.817656 -206.574821 2496.187210 119 73 63
33.738413 -435.913706 2515.278053 104 111 120
23.108065 -270.264316 2493.756104 128 136 142
23.108065 -270.264316 2493.756104 128 136 142
8.121083 -152.931714 2486.817169 153 114 107
33.391210 -484.746313 2535.154152 127 109 121
38.098595 -464.047813 2525.060654 39 25 37
35.996926 -496.069813 2536.320686 155 128 131
36.072558 -478.647614 2534.038162 97 60 79
34.520084 -399.655890 2518.906021 69 71 78
38.309893 -436.797762 2525.579453 36 30 31
35.596621 -425.970554 2526.706505 61 49 56
35.596621 -425.970554 2526.706505 61 49 56
41.966590 -368.131733 2510.074615 81 81 91
44.601351 -364.748144 2514.077187 125 136 139
48.843968 -386.705279 2518.632698 64 67 68
52.265441 -442.093325 2543.810844 93 53 48
49.546716 -265.284848 2505.655098 115 122 120
59.109735 -378.222394 2522.827148 102 80 79
79.553413 -317.581415 2481.524086 52 46 68
75.505829 -403.296757 2534.344864 221 177 162
76.153773 -402.926874 2533.671379 221 177 162
76.002520 -453.610849 2549.519157 75 53 51
76.002520 -453.610849 2549.519157 75 53 51
75.158107 -354.909873 2531.624985 115 128 135
75.743484 -102.439404 2472.584152 148 126 134
75.305808 -393.638062 2548.657608 96 102 104
75.785971 -417.854977 2554.284096 82 52 47
77.470666 -410.234928 2550.819588 115 109 113
78.390753 -388.397336 2546.955109 52 47 52
79.784077 -399.723148 2548.109436 125 140 150
81.122839 -353.840280 2544.131660 108 70 64
84.786254 -374.892163 2551.785660 64 46 49
92.657870 -407.799435 2554.474831 72 49 52
92.657870 -407.799435 2554.474831 72 49 52
96.114540 -430.763388 2555.307388 89 65 58
96.114540 -430.763388 2555.307388 89 65 58
94.013852 -415.596151 2558.516312 149 112 126
94.677591 -485.439730 2576.191902 185 143 132
90.770257 -331.887293 2541.972351 62 50 53
91.087902 -352.658153 2546.684265 152 116 108
101.170123 -444.180012 2559.610748 136 94 85
101.170123 -444.180012 2559.610748 136 94 85
98.494530 -429.976320 2565.611649 109 72 76
98.331618 -257.007146 2521.132851 51 55 67
96.846616 -368.983054 2554.297256 136 104 94
99.410594 -259.811139 2521.780968 72 78 81
96.274787 -347.848487 2550.264740 165 133 119
102.344573 -337.256479 2550.994492 145 149 155
103.076243 -357.306886 2557.260513 112 74 65
107.928658 -378.326344 2556.930923 157 116 134
107.561803 -242.811298 2525.458717 96 100 109
113.211346 -474.963808 2583.813286 96 61 85
114.291763 -464.494658 2584.040833 68 39 64
113.983023 -471.041918 2587.227058 145 109 132
216.314244 126.117527 2266.822052 73 88 100
994.626045 187.970376 1414.867115 145 94 77
116.798437 -266.155124 2539.117622 76 55 54
228.660131 99.280846 2263.227272 27 30 40
118.365729 -392.423201 2572.731781 140 107 99
117.206883 -252.985859 2538.510323 33 33 40
122.502470 -445.545197 2591.286469 171 129 125
123.678565 -406.503630 2585.241127 130 107 114
127.569437 -257.982135 2549.006271 130 139 140
127.569437 -257.982135 2549.006271 130 139 140
236.451292 139.613211 2264.244461 92 106 112
227.564001 171.128118 2270.939064 115 100 127
227.564001 171.128118 2270.939064 115 100 127
238.342738 133.753383 2265.226746 46 55 66
128.770864 -225.108433 2543.979645 135 118 131
241.766810 108.556545 2268.986893 17 24 33
133.638120 -263.704181 2558.589745 70 47 49
243.968892 118.920684 2270.776749 27 33 45
245.519423 115.496504 2269.478035 98 107 112
248.147106 106.348360 2274.239731 80 101 109
244.263077 142.038012 2270.941353 88 106 114
245.974469 132.080972 2277.022171 80 95 104
244.544005 142.733157 2284.226799 78 92 101
145.700216 -36.998421 2524.327469 51 39 45
155.457926 -212.607360 2558.938599 57 45 48
165.889060 -310.258269 2577.898407 122 134 139
165.005672 -281.384277 2574.579239 110 118 128
162.889767 -270.362520 2578.657913 64 43 46
165.403974 -322.636437 2589.817429 124 82 71
237.324309 -27.858737 2384.091187 81 74 95
295.805836 345.592117 2194.980621 51 38 37
188.720930 -9.572419 2467.126274 57 49 45
165.190136 -220.471454 2568.557930 130 144 150
164.771271 -229.966903 2573.141479 114 77 69
164.424133 -210.788035 2568.244553 89 63 57
193.510568 -22.123368 2471.558762 51 39 45
164.843476 -129.869366 2554.233551 123 83 74
226.230383 -10.072108 2423.134613 128 98 86
233.851242 133.714354 2388.450813 28 31 36
193.429983 -320.701647 2607.727432 154 108 96
202.981663 -221.815515 2594.502449 165 119 108
204.638577 -206.027818 2591.750145 155 111 98
221.148396 -462.296486 2654.040146 106 75 81
215.805387 -51.323426 2550.792503 179 138 126
313.348961 70.384467 2352.392578 50 32 28
235.369492 -523.790026 2695.477676 152 98 79
207.847691 223.031139 2509.341621 80 57 54
207.847691 223.031139 2509.341621 80 57 54
207.887197 267.685485 2500.338554 77 55 55
244.688177 -424.341726 2659.651184 165 114 104
222.453547 19.494343 2559.324837 98 69 78
237.507939 -278.336787 2628.899765 90 65 80
241.275740 -313.626313 2636.819649 159 114 102
213.579488 274.277449 2501.529121 166 122 111
250.490832 -426.999569 2663.579369 168 122 108
250.490832 -426.999569 2663.579369 168 122 108
212.624097 314.532828 2493.550110 82 57 53
214.213967 306.260443 2497.511101 161 123 109
213.371205 358.762550 2484.497261 89 62 57
247.649503 -302.036166 2637.731743 89 74 87
213.596988 403.627825 2476.421928 82 59 55
227.531767 148.818588 2534.154320 96 60 55
8331.526947 3789.964676 -14685.839844 132 92 85
214.293313 448.187447 2465.246773 83 59 57
257.916951 -525.683975 2707.864952 212 165 147
-2254.266167 -2544.436455 9303.562164 201 158 137
261.527991 -421.398211 2666.766167 189 147 129
213.513803 493.631029 2456.429482 68 46 47
236.080766 60.688454 2559.584427 135 94 87
8367.586517 3769.053650 -14905.401611 130 80 59
86.061710 -712.948561 3114.592743 150 92 81
213.655233 538.529682 2448.796463 72 51 51
218.226695 455.797052 2468.475151 154 117 103
218.226695 455.797052 2468.475151 154 117 103
8025.779724 2935.715103 -13967.538452 72 34 35
260.351229 -325.557756 2650.646973 92 70 81
7422.686005 2520.289421 -12604.697418 72 34 35
266.486239 -375.148773 2664.021301 126 86 75
265.072322 -340.789509 2655.507851 78 68 87
221.078372 534.623671 2454.292488 147 109 95
270.891666 -350.326586 2660.976601 94 77 90
8328.708649 3795.080948 -15156.457520 132 85 63
226.451302 527.118063 2460.230637 32 28 47
256.617117 -220.437145 2656.926918 209 166 145
228.118443 526.749516 2458.323669 32 28 47
228.118443 526.749516 2458.323669 32 28 47
273.881531 -328.455496 2660.238838 138 94 87
8583.224487 4439.514542 -16028.025818 196 147 122
8583.224487 4439.514542 -16028.025818 196 147 122
239.430451 241.192484 2534.657097 49 41 56
7606.413269 1477.826881 -12967.257690 170 130 116
278.645182 -493.276310 2712.496376 175 119 98
254.309368 63.607633 2570.973015 140 98 90
8940.814972 3030.848122 -16419.464111 53 30 23
107.550478 -342.554998 3023.378181 34 24 19
256.589985 -9.974729 2606.254768 45 28 21
260.950303 60.428685 2575.418663 178 135 122
285.335040 -344.558311 2669.532394 142 99 88
7999.834442 2556.284714 -14390.663147 200 159 137
7999.834442 2556.284714 -14390.663147 200 159 137
8960.414886 3071.676445 -16740.548706 60 24 25
769.944668 -23.052518 1546.410656 237 185 168
285.123682 -300.262213 2660.657692 135 95 90
260.179090 -7.156953 2609.888458 201 157 138
289.067411 -358.142829 2674.189377 87 56 73
261.974764 420.558786 2470.301628 190 148 128
786.677074 16.120420 1503.251171 150 105 95
269.503355 61.299551 2580.512047 168 129 118
298.846698 -487.617779 2723.841476 175 118 97
273.579478 57.454681 2583.044434 129 87 83
297.521615 -306.763148 2669.111252 206 160 142
303.785729 -449.760485 2707.690811 155 118 110
301.774669 -350.172710 2677.870941 133 88 81
309.321666 -446.727943 2699.601746 155 118 110
235.279179 80.951536 3474.444199 68 35 43
308.101845 -459.985065 2711.064529 130 111 119
308.101845 -459.985065 2711.064529 130 111 119
305.205584 -380.247140 2689.872551 191 148 131
290.768075 -249.561357 2674.507904 207 163 144
290.768075 -249.561357 2674.507904 207 163 144
306.461668 -374.686909 2688.913155 124 84 74
272.298861 263.576889 2533.078384 80 54 43
7631.488800 -1000.621986 -12878.829956 185 142 123
7460.346222 -1160.922718 -12582.391357 49 24 29
311.699820 -339.453483 2684.866524 192 148 133
311.699820 -339.453483 2684.866524 192 148 133
-25.768825 683.375025 3046.623993 163 125 110
-25.768825 683.375025 3046.623993 163 125 110
314.416146 -354.708362 2688.677788 80 60 74
283.559895 167.671418 2568.347168 123 85 77
255.285096 505.316734 2509.299660 82 54 41
318.378305 -359.723067 2691.969299 171 135 118
289.855027 -59.973162 2643.401146 222 173 151
289.855027 -59.973162 2643.401146 222 173 151
295.503640 37.459284 2599.975014 180 135 120
264.969182 556.947041 2477.559471 92 63 58
850.218105 158.315039 1338.782120 217 169 151
117.096162 445.316124 2845.409012 94 60 47
322.148585 -366.401005 2694.702911 160 123 113
264.288044 599.547338 2469.958496 86 59 56
322.524071 -340.400195 2691.666031 184 140 122
322.524071 -340.400195 2691.666031 184 140 122
325.531530 -356.208324 2697.014427 169 134 115
322.347474 -289.415908 2679.451752 180 141 127
297.131586 1.634035 2628.512192 186 138 125
271.397758 553.853035 2481.943321 164 125 110
308.574390 -170.672989 2670.453262 218 176 159
300.360513 80.439305 2595.355606 77 73 89
300.360513 80.439305 2595.355606 77 73 89
326.759529 -330.054212 2692.155647 139 95 83
269.900393 597.086096 2473.968315 158 123 109
331.169820 -367.578864 2701.555443 105 71 60
327.710533 -317.322373 2690.677834 130 84 74
302.203012 88.620389 2595.394707 98 73 79
306.442428 32.538089 2609.900856 173 128 117
308.008456 32.616487 2607.777596 173 128 117
299.767709 192.382550 2572.944069 108 70 63
339.024043 -416.360044 2716.268158 145 99 90
316.867113 -224.986506 2696.561241 202 153 134
8936.104584 4637.250900 -18725.546265 148 101 74
307.443357 -14.594617 2640.725708 53 34 27
335.622478 -330.920482 2697.493553 101 81 87
334.898710 -291.537261 2688.937378 134 91 78
304.423404 188.489604 2577.689743 172 131 117
320.528126 -176.050735 2680.495453 224 178 159
304.854226 188.696110 2577.103806 172 131 117
8268.890381 -2359.527397 -14576.101685 18 13 11
321.671081 -242.895961 2710.291672 34 24 19
352.603149 -412.476873 2726.501656 203 158 141
7748.287964 -1185.157585 -14060.382080 129 88 77
346.331954 -287.578464 2694.864845 182 145 133
347.952819 -299.639988 2698.360062 97 76 89
290.144920 611.405325 2483.986282 131 99 88
320.415092 192.296100 2586.132812 178 137 119
300.854468 398.891568 2555.706978 93 60 48
330.870914 67.596012 2617.205811 180 138 124
7586.619568 -3625.239182 -12966.015625 61 34 35
294.872022 617.193651 2487.919807 68 44 36
332.421184 71.823007 2618.074036 136 93 83
334.881067 64.099205 2617.808914 135 97 87
300.538278 479.283428 2539.799309 54 20 23
300.955296 610.691690 2491.236305 67 51 45
349.005985 -174.623322 2692.501450 216 169 148
300.655508 510.137987 2533.355522 57 20 22
288.621211 556.596184 2547.568893 156 119 103
721.471882 251.654339 1928.132629 54 35 28
379.875922 -455.648994 2745.169449 53 34 49
307.582521 602.108574 2496.296501 69 42 45
307.674074 619.871378 2492.829514 64 37 26
309.557486 487.082672 2542.937851 216 146 127
309.557486 487.082672 2542.937851 216 146 127
312.057495 613.637686 2496.214485 132 99 89
316.881394 557.833338 2508.913422 163 124 109
316.881394 557.833338 2508.913422 163 124 109
350.645208 65.375775 2629.620361 133 92 81
385.555220 -428.009033 2747.838211 147 103 91
385.555220 -428.009033 2747.838211 147 103 91
357.017231 56.725657 2635.270309 136 99 92
359.903741 69.622773 2633.164406 194 150 133
324.726915 513.522196 2550.041199 83 51 44
326.393652 512.732983 2547.945976 83 51 44
365.144467 75.010800 2636.379814 138 98 85
394.574428 -281.841898 2724.061966 167 119 107
329.644299 500.504446 2560.911369 54 35 28
329.644299 500.504446 2560.911369 54 35 28
373.945832 28.165981 2650.976944 91 75 89
390.823793 -158.305979 2704.895592 183 141 124
382.332397 54.938835 2650.322342 138 95 88
387.968540 53.092903 2654.649544 141 100 89
378.701496 191.919971 2619.569969 157 123 109
382.288170 184.673798 2623.931313 144 112 93
382.288170 184.673798 2623.931313 144 112 93
355.988312 562.330675 2533.362389 163 125 110
355.988312 562.330675 2533.362389 163 125 110
407.239580 -43.760940 2673.841286 173 131 119
374.443793 358.319831 2584.897995 93 68 84
360.667062 568.146420 2534.842110 94 66 62
367.097068 564.872265 2539.503288 162 125 109
365.722227 613.693953 2529.331398 163 127 110
365.328598 622.486687 2527.634239 154 124 108
396.519852 246.468973 2620.479774 108 75 68
392.606664 335.270810 2600.102425 99 70 66
396.035075 291.679382 2611.981773 103 70 64
394.047379 342.336369 2598.651314 178 135 116
390.986109 381.116319 2590.614128 100 69 65
379.302573 543.968534 2550.595474 36 29 44
371.142554 629.571962 2533.699608 88 65 59
398.186278 298.404384 2613.367462 183 141 121
391.869593 424.919653 2581.086540 99 65 61
463.372946 -413.856506 2792.639732 183 139 123
394.934082 476.131725 2572.638702 171 131 111
394.884872 521.478605 2564.381218 171 131 111
429.650927 98.129046 2671.194267 76 70 87
429.650927 98.129046 2671.194267 76 70 87
430.280685 105.524373 2669.548607 155 142 135
432.332325 87.683415 2674.168777 137 108 106
463.832903 -193.977344 2748.600769 185 143 125
409.393692 470.692587 2583.694458 93 65 62
407.994413 522.516537 2568.887711 171 129 111
447.220612 67.662984 2686.596298 118 83 73
411.838865 529.187727 2572.118759 96 64 57
409.423780 560.114098 2566.522217 89 64 58
410.015821 560.160923 2565.575027 89 64 58
463.661003 -65.659505 2723.333931 186 143 126
449.464369 128.353190 2675.727272 202 156 136
420.587778 473.341751 2590.411758 88 63 58
418.780613 524.888039 2577.281380 169 129 111
456.616545 94.547504 2686.561203 166 146 140
453.826284 121.499622 2681.968307 84 72 92
462.872982 106.538606 2689.104080 149 139 135
455.620861 208.798432 2660.855484 116 84 75
456.642151 214.726996 2660.823250 95 69 58
456.642151 214.726996 2660.823250 95 69 58
277.220774 219.183421 3216.897202 90 61 56
462.256384 222.915411 2664.813423 183 140 122
449.083853 423.614788 2618.334961 149 115 101
449.083853 423.614788 2618.334961 149 115 101
468.311596 214.147830 2669.483185 100 71 58
452.786970 393.392301 2623.909950 180 137 119
465.756035 254.040051 2663.832664 103 73 65
456.382895 400.122547 2625.525284 100 70 61
455.132580 430.514002 2618.665314 98 68 62
537.547016 -427.316761 2838.531494 98 67 74
454.758310 520.334530 2601.780891 88 62 56
466.041327 433.561373 2627.126122 98 68 60
284.597611 639.796877 3150.228310 168 126 109
456.776047 579.396868 2591.574287 98 69 61
453.852844 637.356949 2579.408646 89 65 59
536.929941 -234.034801 2800.742340 108 73 79
464.084387 575.900841 2596.380234 171 128 109
531.900215 -131.975222 2777.233887 162 121 109
537.057114 -176.941264 2788.647842 102 64 68
462.984896 630.996847 2584.540749 165 128 110
537.480307 -117.903113 2777.437401 93 61 67
501.466084 270.427108 2678.337097 104 71 67
499.403286 301.245189 2672.691727 103 71 66
499.986124 301.431346 2671.648788 103 71 66
512.454414 160.846210 2713.974190 181 136 120
471.499538 637.975311 2581.250763 92 65 59
497.636366 354.292631 2659.921837 183 139 121
585.837173 417.796230 2551.016998 168 126 109
501.791048 361.443210 2661.289024 103 70 64
500.921917 391.046333 2653.631401 97 69 65
502.483988 382.109118 2657.077026 103 71 63
509.160757 357.021880 2666.253090 182 137 118
508.394861 387.639642 2659.474754 176 136 115
502.422667 450.349283 2643.744469 100 67 62
537.529755 87.946540 2736.087227 98 65 70
573.819971 -290.404630 2833.532143 130 86 73
500.635433 480.257988 2637.054443 96 67 63
501.002932 480.414963 2636.354256 96 67 63
512.513304 393.992305 2662.164307 100 70 64
508.266115 476.801825 2641.274452 172 136 117
500.832415 570.090818 2620.600700 96 66 62
501.530361 570.066738 2619.347954 96 66 62
545.929670 126.206529 2735.718727 154 142 138
433.387852 611.931753 2877.606964 168 126 109
549.463987 138.795090 2734.723282 177 134 118
550.640583 137.461245 2733.851242 174 132 120
551.716232 125.196958 2737.583733 54 40 62
541.847944 231.160283 2708.993912 149 116 101
508.643770 566.655350 2624.990654 172 131 115
573.699808 -89.516717 2793.643570 121 76 64
540.433550 253.363848 2702.946854 157 121 107
512.239361 573.378563 2625.748634 91 62 57
556.178141 130.278575 2740.623283 151 136 130
547.803879 225.915027 2713.677216 90 61 56
556.254673 138.786805 2737.555313 89 61 63
599.570179 -278.127480 2846.270180 146 102 88
561.955309 126.823902 2744.032669 96 112 119
641.372108 227.485442 2371.228409 183 140 122
606.077671 -287.054706 2852.164650 144 102 86
567.722559 122.005498 2748.260307 129 129 132
574.543667 62.952113 2763.587379 116 78 64
572.067595 108.273602 2754.769897 148 137 134
628.299570 -428.171015 2890.197754 56 29 38
557.209539 264.132690 2714.894295 100 70 65
574.799490 100.555193 2755.679321 120 79 66
626.675653 431.054020 2502.104759 168 126 109
575.548267 118.844438 2752.834129 89 59 46
632.850170 -407.623434 2892.171097 184 137 122
577.345133 131.381083 2753.304100 153 132 129
577.345133 131.381083 2753.304100 153 132 129
546.366262 441.716385 2671.892548 93 66 60
620.209169 -273.563528 2856.609726 148 103 90
610.128546 -169.311678 2829.197121 193 148 133
625.383663 -313.251543 2868.885994 146 102 88
613.120842 -166.569030 2831.060028 140 96 82
583.014345 145.125961 2752.309227 180 136 119
584.202623 139.615262 2755.253792 102 77 79
553.680801 437.750912 2677.062035 174 132 113
557.950544 444.048691 2680.274010 92 65 58
558.676958 443.845129 2678.944397 92 65 58
636.808777 -278.484869 2867.535973 140 97 81
640.743637 -285.460401 2873.155594 135 93 80
-1319.903564 -542.618084 1734.686470 178 134 124
-1217.491627 -3.877184 1669.749260 106 68 64
-1217.491627 -3.877184 1669.749260 106 68 64
-1301.145458 -470.015335 1725.949860 110 71 60
-1384.504318 -834.009838 1774.281120 177 134 121
-1296.059227 -484.588432 1730.019569 139 95 82
-1244.969654 19.778958 1677.964592 92 58 49
3754.214478 655.768490 605.849648 175 138 119
-1228.835011 63.090360 1674.003601 114 78 67
4408.646393 1113.126945 410.001135 172 130 115
-1286.969280 -472.087145 1736.524582 170 126 110
2822.463608 472.948980 905.930042 60 40 52
-1288.233089 -504.366112 1742.122650 159 125 114
4083.795166 753.348160 512.500906 153 112 108
-1286.630917 -510.338354 1745.937347 123 86 80
-1198.644543 208.006358 1668.206787 161 125 111
-1281.790352 -495.425749 1745.510674 116 81 71
-1281.105232 -542.842913 1750.127602 123 87 78
4144.244385 872.941017 479.191923 163 129 123
-1325.348854 -660.646868 1772.645187 199 155 136
-1188.198090 123.640656 1677.324867 120 81 69
-1144.941616 378.259349 1649.714088 151 117 104
-1136.580181 293.576264 1659.569168 99 67 65
-1141.559601 384.743047 1655.780029 96 67 61
-1314.027882 -665.541935 1784.191322 88 56 42
-1154.926014 348.879743 1668.945122 157 121 106
-1317.257690 -983.511734 1818.928528 117 88 85
-1277.797318 -653.869867 1791.861343 97 60 52
-1145.613194 205.800438 1692.522812 105 75 66
4833.333206 1522.069550 212.771034 142 93 75
-1058.198929 501.006699 1648.508263 82 72 85
-1098.146248 452.802706 1662.759590 140 108 98
4941.357422 1668.650055 161.169922 159 118 104
-1234.660435 -626.519823 1793.076897 60 40 52
-1234.660435 -626.519823 1793.076897 60 40 52
